ply
format ascii 1.0
comment PCL generated
element vertex 1553
property float x
property float y
property float z
element camera 0
property float view_px
property float view_py
property float view_pz
property float x_axisx
property float x_axisy
property float x_axisz
property float y_axisx
property float y_axisy
property float y_axisz
property float z_axisx
property float z_axisy
property float z_axisz
property float focal
property float scalex
property float scaley
property float centerx
property float centery
property int viewportx
property int viewporty
property float k1
property float k2
end_header
-64.735397 -60.442299 487.19299
-64.607399 -60.5126 487.76501
-64.473 -60.577202 488.29001
-64.342499 -60.645901 488.85001
-64.215599 -60.718498 489.439
-64.086304 -60.7892 490.01401
-63.950298 -60.854 490.54199
-63.814301 -60.9193 491.073
-63.677399 -60.9841 491.60101
-63.551399 -61.059799 492.215
-63.429501 -61.139801 492.866
-63.284901 -61.198601 493.345
-63.160599 -61.277302 493.98401
-63.012402 -61.333401 494.44101
-62.873699 -61.398998 494.97501
-62.735401 -61.4655 495.51599
-62.601299 -61.536598 496.09399
-62.465599 -61.606602 496.66299
-62.328098 -61.675098 497.22101
-62.198799 -61.752399 497.84799
-62.059898 -61.820599 498.40302
-61.919701 -61.887901 498.95099
-61.7798 -61.9561 499.505
-61.6432 -62.027901 500.08899
-61.504501 -62.098202 500.66
-61.371399 -62.174599 501.28101
-61.228901 -62.241901 501.82901
-61.0886 -62.312 502.39899
-60.936001 -62.369999 502.871
-60.797501 -62.442902 503.46399
-60.651901 -62.508801 504
-60.506401 -62.575401 504.54199
-60.3647 -62.6465 505.11899
-60.2145 -62.709099 505.629
-60.076401 -62.784801 506.245
-59.931099 -62.8536 506.80301
-59.787899 -62.924999 507.384
-59.6395 -62.991402 507.92401
-59.498299 -63.066002 508.53
-59.352402 -63.136002 509.10001
-59.210999 -63.211498 509.71301
-59.056999 -63.2738 510.22
-58.920101 -63.355099 510.88
-58.773602 -63.426498 511.461
-58.623299 -63.4944 512.013
-58.4729 -63.562698 512.56799
-58.322399 -63.631401 513.12701
-58.171398 -63.700001 513.68402
-58.0187 -63.7673 514.23199
-57.8638 -63.8326 514.763
-57.7136 -63.903599 515.34003
-57.562698 -63.9744 515.91602
-57.4095 -64.043098 516.47498
-57.263802 -64.120796 517.10602
-57.101898 -64.180801 517.59399
-56.951099 -64.253799 518.18701
-56.800301 -64.3274 518.78497
-56.644299 -64.395599 519.34003
-56.487301 -64.463203 519.89001
-56.333099 -64.5345 520.46899
-56.180199 -64.607903 521.065
-56.027302 -64.681801 521.66602
-55.873001 -64.7547 522.258
-55.715401 -64.824402 522.82397
-55.553799 -64.8899 523.35699
-55.380001 -64.941597 523.77899
-55.2118 -65.000298 524.25702
-55.043201 -65.058998 524.73499
-54.876499 -65.120499 525.23401
-54.712101 -65.185097 525.76001
-54.535599 -65.235802 526.17401
-54.347301 -65.272697 526.47601
-54.139198 -65.286102 526.58698
-53.922401 -65.289001 526.61603
-53.704498 -65.290703 526.633
-53.495399 -65.303001 526.737
-53.299999 -65.332397 526.97803
-53.124802 -65.386597 527.41998
-52.956001 -65.449402 527.93103
-52.799099 -65.527496 528.56403
-52.623501 -65.582802 529.01501
-52.435398 -65.6231 529.34399
-52.241901 -65.656799 529.62
-52.046299 -65.688202 529.87701
-51.8423 -65.709198 530.05103
-51.648602 -65.743599 530.33197
-51.470402 -65.797997 530.776
-51.320099 -65.888702 531.51099
-51.154301 -65.960197 532.09198
-50.849998 -66.140503 533.55499
-50.676102 -66.203598 534.06799
-50.5126 -66.280701 534.69397
-50.3456 -66.353996 535.289
-50.168999 -66.4151 535.78601
-49.9884 -66.471497 536.245
-49.814899 -66.537903 536.78497
-49.650101 -66.616501 537.42297
-49.494499 -66.708397 538.16803
-49.333698 -66.7939 538.862
-49.165298 -66.869904 539.479
-48.993801 -66.942398 540.06799
-48.815201 -67.005798 540.58301
-48.656799 -67.097702 541.32898
-48.505402 -67.200104 542.159
-48.3428 -67.287903 542.87097
-48.165798 -67.3563 543.42603
-47.987 -67.422897 543.96802
-47.801201 -67.480301 544.43402
-47.6119 -67.533096 544.86401
-47.424 -67.588501 545.315
-47.224098 -67.627197 545.63202
-47.034901 -67.6819 546.07599
-46.885201 -67.7939 546.98401
-46.738701 -67.912003 547.94
-46.5602 -67.9842 548.52698
-46.372002 -68.043198 549.00598
-46.169899 -68.0821 549.32397
-45.967701 -68.121101 549.64301
-45.771 -68.1689 550.03198
-45.573898 -68.2164 550.41901
-45.374401 -68.261002 550.78198
-45.179298 -68.312599 551.20203
-44.98 -68.358299 551.57501
-44.833698 -68.485497 552.604
-44.650799 -68.5578 553.19202
-44.4725 -68.637802 553.841
-44.288399 -68.7099 554.42603
-44.104099 -68.782204 555.013
-43.9189 -68.854103 555.59698
-43.731701 -68.923401 556.15997
-43.5411 -68.988197 556.68597
-43.3437 -69.042702 557.13
-43.152302 -69.107498 557.65601
-42.956501 -69.165901 558.13
-42.760399 -69.224403 558.60602
-42.561298 -69.278801 559.04797
-42.367401 -69.342201 559.56403
-42.166401 -69.3946 559.98901
-41.964699 -69.446503 560.41199
-41.767101 -69.505699 560.89301
-41.581699 -69.586098 561.54498
-41.382301 -69.643799 562.01398
-41.176399 -69.691002 562.39801
-40.971401 -69.740402 562.79999
-40.7701 -69.796799 563.25897
-40.5686 -69.853302 563.71802
-40.366199 -69.909103 564.17102
-40.161301 -69.961098 564.59497
-39.961498 -70.022598 565.09399
-39.757198 -70.077003 565.53699
-39.550499 -70.127701 565.94897
-39.341702 -70.1754 566.33698
-39.133499 -70.224602 566.737
-38.924099 -70.2724 567.12598
-38.7145 -70.320396 567.51599
-38.509102 -70.376503 567.97198
-38.3046 -70.435097 568.448
-38.097099 -70.4888 568.88501
-37.887798 -70.539703 569.29901
-37.670101 -70.5756 569.591
-37.454899 -70.616699 569.92603
-37.244301 -70.667099 570.33698
-37.034698 -70.720001 570.76599
-36.823101 -70.769798 571.17102
-36.606602 -70.810699 571.505
-36.3932 -70.8582 571.89099
-36.196701 -70.939301 572.54797
-29.2146 -58.408798 471.422
-29.0128 -58.397499 471.33301
-28.8041 -58.371899 471.129
-28.594299 -58.3438 470.905
-28.3899 -58.3265 470.767
-28.190201 -58.318401 470.70401
-27.994101 -58.318001 470.703
-66.994102 -59.186901 478.599
-66.830101 -59.218201 478.85699
-66.687897 -59.2691 479.27499
-66.5578 -59.3312 479.78201
-66.425301 -59.391399 480.27399
-66.299202 -59.457802 480.81601
-66.183601 -59.534 481.43701
-66.058998 -59.602501 481.996
-65.926804 -59.6646 482.50299
-65.790398 -59.723202 482.983
-65.668503 -59.795502 483.57199
-65.541 -59.862999 484.12399
-65.4114 -59.9291 484.66299
-65.285797 -59.999199 485.23499
-65.156197 -60.066101 485.78101
-65.041397 -60.146999 486.44101
-64.908302 -60.211601 486.96799
-64.779297 -60.2803 487.52899
-64.648598 -60.3479 488.07999
-64.517799 -60.415798 488.634
-64.383499 -60.4809 489.16599
-64.244904 -60.542198 489.66699
-64.112602 -60.610001 490.22
-63.984402 -60.681999 490.80801
-63.8549 -60.7533 491.39001
-63.717701 -60.817699 491.91599
-63.581501 -60.883598 492.453
-63.4524 -60.9566 493.048
-63.320099 -61.027 493.62299
-63.183102 -61.093399 494.16501
-63.055302 -61.169102 494.78201
-62.918701 -61.236698 495.33401
-62.779999 -61.3027 495.87299
-62.641998 -61.3699 496.42099
-62.5023 -61.435799 496.95901
-62.354301 -61.493999 497.435
-62.230598 -61.576599 498.108
-62.091999 -61.645 498.66599
-61.952 -61.712299 499.216
-61.815899 -61.7841 499.802
-61.675701 -61.852299 500.358
-61.538898 -61.924301 500.94501
-61.402 -61.996799 501.53601
-61.264702 -62.069302 502.12701
-61.1208 -62.135601 502.66901
-60.979401 -62.204899 503.23401
-60.829498 -62.265999 503.733
-60.690601 -62.338699 504.327
-60.544102 -62.404202 504.86099
-60.409901 -62.482899 505.50201
-60.261799 -62.547699 506.03201
-60.1129 -62.612202 506.55801
-59.967999 -62.681099 507.12
-59.824402 -62.751999 507.698
-59.682301 -62.825001 508.29401
-59.543201 -62.901699 508.91901
-59.403198 -62.977901 509.54001
-59.252998 -63.0439 510.07901
-59.097099 -63.104198 510.57199
-58.9533 -63.177898 511.173
-58.813099 -63.2561 511.81
-58.658699 -63.3195 512.32703
-58.513599 -63.393501 512.93103
-58.363499 -63.462502 513.49402
-58.2141 -63.532799 514.06702
-58.061798 -63.600399 514.61902
-57.912998 -63.672401 515.20599
-57.7603 -63.7407 515.763
-57.608799 -63.810699 516.33398
-57.456699 -63.8806 516.90399
-57.304798 -63.951199 517.47998
-57.1525 -64.022003 518.05701
-56.996799 -64.0895 518.60797
-56.8475 -64.164703 519.22101
-56.6908 -64.232101 519.771
-56.529999 -64.295403 520.28699
-56.381901 -64.373596 520.92499
-56.231701 -64.450104 521.54901
-56.078701 -64.523903 522.15002
-55.917198 -64.588402 522.677
-55.7616 -64.660301 523.263
-55.594898 -64.719803 523.74902
-55.426399 -64.777702 524.22198
-55.2589 -64.837402 524.70898
-55.091702 -64.897697 525.20203
-54.922199 -64.955902 525.677
-54.7542 -65.016197 526.16901
-54.567799 -65.055199 526.48901
-54.3615 -65.070602 526.61798
-54.144402 -65.073196 526.64301
-53.927898 -65.0765 526.67499
-53.716 -65.085503 526.75201
-53.5219 -65.115997 527.00299
-53.345501 -65.168602 527.43298
-53.179901 -65.234703 527.97198
-53.015202 -65.302597 528.526
-52.837502 -65.355003 528.95398
-52.658699 -65.406403 529.37402
-52.464199 -65.438698 529.64001
-52.266399 -65.467102 529.87402
-52.065201 -65.491501 530.07501
-51.861698 -65.5131 530.25403
-51.6735 -65.554398 530.59302
-51.517601 -65.637199 531.26801
-51.3904 -65.757401 532.24402
-51.257599 -65.871498 533.172
-51.1077 -65.964401 533.92798
-50.906601 -65.991898 534.15399
-50.735401 -66.058403 534.69702
-50.577 -66.142303 535.38098
-50.4053 -66.209602 535.92902
-50.2216 -66.261497 536.35303
-50.044701 -66.322998 536.85498
-49.865799 -66.382301 537.33899
-49.697601 -66.456497 537.94299
-49.559898 -66.572304 538.88397
-49.424801 -66.692596 539.86298
-49.267799 -66.784401 540.60999
-49.093102 -66.852898 541.16803
-48.9156 -66.918297 541.70099
-48.745098 -66.993797 542.31598
-48.574001 -67.069199 542.93103
-48.3951 -67.134499 543.46301
-48.2174 -67.202103 544.01398
-48.041199 -67.272499 544.58801
-47.852798 -67.326202 545.02698
-47.673901 -67.394096 545.58002
-47.500801 -67.470703 546.20398
-47.3232 -67.541603 546.78198
-47.138599 -67.603401 547.28601
-46.967499 -67.684998 547.95001
-46.793701 -67.763496 548.59003
-46.605598 -67.821999 549.06702
-46.414101 -67.876198 549.51001
-46.212799 -67.916496 549.83899
-46.0159 -67.9636 550.22498
-45.814602 -68.004799 550.56201
-45.611198 -68.043198 550.87598
-45.422798 -68.104301 551.375
-45.233299 -68.164597 551.86603
-44.9035 -68.361801 553.47101
-44.708 -68.4151 553.90601
-44.535702 -68.5047 554.63397
-44.361 -68.591499 555.341
-44.173599 -68.659401 555.89398
-43.9813 -68.720398 556.39099
-43.795101 -68.791603 556.97101
-43.600101 -68.8498 557.44598
-43.405701 -68.909401 557.93201
-43.213001 -68.972397 558.44598
-43.017101 -69.030899 558.92297
-42.817799 -69.084702 559.362
-42.619801 -69.140999 559.82098
-42.427399 -69.207298 560.362
-42.230099 -69.266197 560.84198
-42.029099 -69.319504 561.27698
-41.836399 -69.387299 561.83002
-41.645599 -69.459 562.414
-41.452202 -69.5271 562.96802
-41.251701 -69.584099 563.43298
-41.050201 -69.640099 563.88898
-40.843899 -69.688301 564.28302
-40.645302 -69.750504 564.78998
-40.441399 -69.804199 565.22803
-40.237499 -69.858597 565.672
-40.030899 -69.908798 566.08197
-39.829201 -69.9683 566.56702
-39.621601 -70.017899 566.97198
-39.416599 -70.072899 567.41998
-39.209301 -70.124496 567.841
-39.000599 -70.174103 568.24597
-38.7929 -70.226097 568.66998
-38.585602 -70.279503 569.10602
-38.382099 -70.3405 569.60303
-38.172199 -70.390503 570.01099
-37.9627 -70.441902 570.42999
-37.7495 -70.4869 570.79797
-37.534801 -70.5298 571.14801
-37.322498 -70.577698 571.539
-37.109402 -70.624702 571.92297
-36.9034 -70.685997 572.422
-36.688099 -70.730003 572.78198
-36.471001 -70.771202 573.11902
-36.256001 -70.817101 573.49298
-36.062599 -70.905899 574.21503
-29.211599 -58.206699 471.37799
-29.0154 -58.2066 471.38
-28.807301 -58.182499 471.18701
-28.596901 -58.153198 470.952
-28.391899 -58.134701 470.80399
-28.191601 -58.125599 470.733
-27.9939 -58.1217 470.70401
-27.794901 -58.115101 470.65201
-67.0075 -58.999298 478.69901
-66.850601 -59.0369 479.009
-66.723503 -59.101002 479.535
-66.592003 -59.161701 480.03201
-66.4664 -59.228001 480.57599
-66.339699 -59.293701 481.11401
-66.217697 -59.363998 481.689
-66.092499 -59.4319 482.245
-65.952003 -59.486401 482.69299
-65.821999 -59.550701 483.22
-65.697304 -59.620201 483.789
-65.575203 -59.692501 484.38101
-65.443398 -59.756401 484.905
-65.316002 -59.824699 485.46399
-65.195602 -59.900002 486.07999
-65.076698 -59.977001 486.70901
-64.939697 -60.0378 487.20801
-64.810997 -60.106701 487.772
-64.6866 -60.18 488.37201
-64.555603 -60.247501 488.92499
-64.424301 -60.3153 489.48001
-64.285896 -60.376801 489.98499
-64.148201 -60.4394 490.49701
-64.022903 -60.514 491.108
-63.888699 -60.580799 491.655
-63.75 -60.6437 492.17001
-63.6175 -60.712799 492.737
-63.4902 -60.787498 493.34698
-63.349499 -60.849701 493.85699
-63.224998 -60.927898 494.49701
-63.081501 -60.9883 494.992
-62.950802 -61.061501 495.591
-62.810299 -61.125702 496.117
-62.677299 -61.197601 496.70499
-62.5439 -61.2696 497.29501
-62.398602 -61.330299 497.793
-62.2565 -61.394699 498.32001
-62.116901 -61.461899 498.871
-61.987202 -61.539398 499.505
-61.8531 -61.613098 500.108
-61.726299 -61.6945 500.77301
-61.588299 -61.765202 501.35199
-61.442699 -61.828899 501.87399
-61.295601 -61.891399 502.38599
-61.156601 -61.962601 502.96799
-61.009201 -62.0257 503.48499
-60.876301 -62.104 504.12601
-60.726398 -62.165401 504.629
-60.589401 -62.240601 505.24399
-60.450401 -62.314201 505.84698
-60.299599 -62.376099 506.354
-60.152901 -62.442699 506.89899
-60.012901 -62.516701 507.505
-59.867199 -62.5854 508.06699
-59.7299 -62.6633 508.70401
-59.582901 -62.731499 509.263
-59.439701 -62.804401 509.85901
-59.298199 -62.879398 510.47299
-59.1418 -62.939201 510.96201
-58.998299 -63.0131 511.56799
-58.847801 -63.0802 512.117
-58.695702 -63.146 512.65601
-58.554298 -63.223801 513.29199
-58.4067 -63.295399 513.87799
-58.2556 -63.363899 514.43903
-58.104099 -63.432301 514.99799
-57.957401 -63.506599 515.60602
-57.808102 -63.578499 516.19397
-57.652802 -63.644299 516.73297
-57.500099 -63.7136 517.29999
-57.349201 -63.785198 517.88702
-57.196602 -63.855598 518.46301
-57.0438 -63.926201 519.04102
-56.889599 -63.995998 519.61102
-56.732601 -64.063004 520.15997
-56.5802 -64.135696 520.755
-56.433102 -64.214996 521.40302
-56.289799 -64.299301 522.09198
-56.130299 -64.365601 522.63501
-55.963001 -64.423599 523.10999
-55.7952 -64.4814 523.58398
-55.632 -64.544899 524.104
-55.465698 -64.6054 524.59998
-55.301201 -64.668404 525.11603
-55.133999 -64.728699 525.60999
-54.9636 -64.785797 526.078
-54.783401 -64.831802 526.45599
-54.583199 -64.854301 526.64301
-54.365799 -64.856499 526.66498
-54.149601 -64.860199 526.69897
-53.938301 -64.869797 526.78198
-53.741001 -64.8964 527.00098
-53.562599 -64.945999 527.409
-53.389999 -65.003197 527.87799
-53.2299 -65.076103 528.474
-53.047798 -65.122704 528.85699
-52.8671 -65.171303 529.255
-52.678101 -65.210197 529.57501
-52.483002 -65.241501 529.83398
-52.2929 -65.279602 530.14697
-52.106602 -65.322701 530.50201
-51.9179 -65.363197 530.83398
-51.715801 -65.3871 531.03302
-51.5681 -65.480202 531.79303
-51.453499 -65.616402 532.90399
-51.315201 -65.723297 533.776
-51.1506 -65.797401 534.38202
-50.9748 -65.857697 534.875
-50.806301 -65.927902 535.45001
-50.653 -66.0187 536.19098
-50.484501 -66.090202 536.776
-50.305401 -66.148499 537.25299
-50.1269 -66.208199 537.742
-49.942101 -66.260002 538.16699
-49.7696 -66.328499 538.72803
-49.633999 -66.447304 539.69598
-49.483799 -66.547302 540.51202
-49.3144 -66.622398 541.12598
-49.139702 -66.691002 541.68701
-48.967602 -66.763702 542.28198
-48.806999 -66.852898 543.01001
-48.637001 -66.93 543.64001
-48.462399 -67.001404 544.224
-48.285198 -67.07 544.78497
-48.103901 -67.1334 545.30402
-47.9216 -67.195999 545.81702
-47.747898 -67.271301 546.43201
-47.580799 -67.356697 547.12903
-47.406502 -67.432701 547.75
-47.2244 -67.498299 548.28699
-47.0382 -67.558502 548.78003
-46.8484 -67.614304 549.237
-46.654598 -67.664703 549.651
-46.458401 -67.712196 550.03998
-46.254501 -67.748802 550.341
-46.055302 -67.792702 550.70203
-45.8605 -67.843597 551.11902
-45.658798 -67.884697 551.45599
-45.476002 -67.954399 552.026
-45.3302 -68.080498 553.05402
-45.176601 -68.196098 553.99701
-44.968201 -68.229797 554.27399
-44.7756 -68.287804 554.74902
-44.608101 -68.385002 555.54199
-44.438202 -68.479301 556.31201
-44.245399 -68.539299 556.802
-44.047901 -68.592697 557.23999
-43.854801 -68.653297 557.73602
-43.663799 -68.718002 558.26501
-43.4674 -68.774803 558.72998
-43.2752 -68.838997 559.255
-43.0825 -68.902901 559.77802
-42.885799 -68.961304 560.255
-42.684898 -69.013397 560.68201
-42.493401 -69.081497 561.23901
-42.295799 -69.140198 561.71899
-42.1031 -69.207603 562.271
-41.912102 -69.278603 562.85101
-41.712299 -69.335899 563.32001
-41.5131 -69.394699 563.80103
-41.3167 -69.459099 564.32703
-41.115398 -69.515602 564.789
-40.914398 -69.573402 565.263
-40.714401 -69.633598 565.755
-40.513802 -69.693604 566.24597
-40.306599 -69.742798 566.64899
-40.1045 -69.801498 567.12903
-39.9025 -69.860802 567.61401
-39.699299 -69.918999 568.09003
-39.494598 -69.975197 568.54999
-39.286701 -70.0261 568.96698
-39.075001 -70.071198 569.336
-38.867298 -70.123802 569.76703
-38.661598 -70.180702 570.23199
-38.457802 -70.241798 570.73199
-38.248001 -70.292801 571.14899
-38.036301 -70.340698 571.54199
-37.825401 -70.390701 571.95099
-37.611301 -70.435402 572.31799
-37.396 -70.4786 572.67102
-37.179199 -70.519302 573.005
-36.970699 -70.576302 573.47101
-36.761002 -70.632004 573.92603
-36.547298 -70.680496 574.32397
-36.333 -70.7285 574.71698
-36.115898 -70.771599 575.07001
-29.2034 -57.9944 471.25101
-29.014299 -58.008301 471.367
-28.809999 -57.992001 471.23599
-28.599899 -57.963402 471.00601
-28.3941 -57.943501 470.84601
-28.192699 -57.931999 470.75601
-27.993601 -57.9254 470.70401
-27.794001 -57.9175 470.642
-67.0215 -58.812199 478.80399
-66.877098 -58.860699 479.20401
-66.748596 -58.923401 479.72
-66.614304 -58.981499 480.198
-66.4879 -59.046902 480.73599
-66.362198 -59.1134 481.28201
-66.247101 -59.189602 481.90799
-66.117104 -59.253101 482.42999
-65.983597 -59.313702 482.92899
-65.856697 -59.380699 483.479
-65.728996 -59.447399 484.02701
-65.594002 -59.507801 484.52399
-65.471199 -59.5797 485.11499
-65.345398 -59.649399 485.68799
-65.231201 -59.730099 486.349
-65.112999 -59.807598 486.98599
-64.974899 -59.867298 487.47699
-64.836899 -59.927399 487.97101
-64.703903 -59.992599 488.50699
-64.568703 -60.056099 489.03
-64.457703 -60.142601 489.73901
-64.3228 -60.207199 490.26999
-64.193497 -60.277599 490.84799
-64.051003 -60.335999 491.32901
-63.915401 -60.401199 491.86499
-63.780899 -60.467999 492.41299
-63.653198 -60.541599 493.01801
-63.5177 -60.608299 493.56601
-63.3876 -60.6805 494.159
-63.255001 -60.7509 494.737
-63.117199 -60.816601 495.27802
-62.9748 -60.8783 495.785
-62.831799 -60.939899 496.29099
-62.694401 -61.007401 496.84601
-62.582901 -61.100601 497.60999
-62.443298 -61.166801 498.15399
-62.303001 -61.232899 498.69699
-62.158001 -61.294701 499.20499
-62.0299 -61.373699 499.853
-61.895802 -61.447201 500.457
-61.765999 -61.5256 501.10001
-61.626202 -61.594398 501.66501
-61.485401 -61.662701 502.22699
-61.331501 -61.718399 502.685
-61.187901 -61.784698 503.23001
-61.049198 -61.856499 503.82001
-60.912498 -61.930901 504.42999
-60.7742 -62.004002 505.03101
-60.639 -62.081001 505.66299
-60.493 -62.147301 506.20801
-60.336102 -62.202999 506.66599
-60.181198 -62.260899 507.142
-60.050301 -62.344299 507.82599
-59.915501 -62.424099 508.48199
-59.775902 -62.499599 509.10101
-59.632301 -62.5714 509.69101
-59.476799 -62.6311 510.181
-59.328098 -62.698502 510.73499
-59.1875 -62.775002 511.36301
-59.034901 -62.839199 511.89099
-58.8923 -62.914501 512.50897
-58.739601 -62.979599 513.04401
-58.600101 -63.059399 513.698
-58.4515 -63.129902 514.27698
-58.296902 -63.1945 514.80798
-58.150398 -63.268299 515.414
-58.005001 -63.343899 516.03497
-57.855499 -63.4156 516.62299
-57.7015 -63.4828 517.17499
-57.540298 -63.542599 517.66602
-57.391201 -63.616199 518.271
-57.243599 -63.692101 518.89398
-57.090302 -63.7621 519.46899
-56.935299 -63.830799 520.03302
-56.7784 -63.897999 520.58502
-56.6269 -63.971699 521.19
-56.48 -64.051201 521.84198
-56.330002 -64.127701 522.46997
-56.1703 -64.193802 523.013
-55.998901 -64.247002 523.45099
-55.830898 -64.304497 523.92297
-55.667999 -64.368301 524.448
-55.504601 -64.432198 524.97302
-55.338299 -64.492996 525.47302
-55.168499 -64.5504 525.94501
-54.992901 -64.601303 526.36401
-54.8008 -64.633202 526.62799
-54.588402 -64.641197 526.698
-54.371601 -64.644203 526.72699
-54.158298 -64.651299 526.789
-53.9594 -64.675797 526.992
-53.777 -64.720299 527.35901
-53.610199 -64.784103 527.88397
-53.4375 -64.841103 528.35199
-53.259201 -64.891899 528.77002
-53.076801 -64.938103 529.151
-52.882 -64.969398 529.40997
-52.692001 -65.006897 529.71997
-52.497398 -65.038902 529.98499
-52.318901 -65.0914 530.41699
-52.157398 -65.165398 531.02399
-51.979698 -65.219803 531.47198
-51.5075 -65.463203 533.46802
-51.3484 -65.543503 534.12598
-51.2015 -65.640198 534.91803
-51.037399 -65.715599 535.53699
-50.866798 -65.783302 536.09302
-50.7006 -65.857399 536.70001
-50.5294 -65.9254 537.25897
-50.3559 -65.991096 537.79797
-50.1894 -66.066597 538.41699
-50.0037 -66.117302 538.83502
-49.8522 -66.214104 539.62799
-49.698299 -66.308403 540.40002
-49.525902 -66.3787 540.97699
-49.348701 -66.443398 541.508
-49.181 -66.5214 542.14801
-49.016102 -66.603996 542.82501
-48.868 -66.710197 543.69397
-48.699402 -66.789299 544.34302
-48.5215 -66.8563 544.89301
-48.344501 -66.9254 545.46002
-48.1623 -66.987602 545.97101
-47.9842 -67.056297 546.534
-47.820599 -67.146103 547.27002
-47.6455 -67.220299 547.87903
-47.4706 -67.2957 548.49701
-47.289799 -67.363297 549.052
-47.098 -67.415802 549.48401
-46.902901 -67.464104 549.88098
-46.711102 -67.517601 550.32098
-46.5131 -67.562698 550.69202
-46.309799 -67.600601 551.005
-46.117298 -67.654602 551.44897
-45.937901 -67.728401 552.05402
-45.7528 -67.794601 552.59698
-45.580502 -67.880501 553.30103
-45.4244 -67.991501 554.20898
-45.237598 -68.057404 554.75
-45.0462 -68.116997 555.23999
-44.857601 -68.181702 555.771
-44.681301 -68.265602 556.45898
-44.4977 -68.339401 557.06299
-44.306099 -68.401398 557.573
-44.108002 -68.454102 558.005
-43.923801 -68.528999 558.62
-43.7355 -68.598198 559.18701
-43.537201 -68.652397 559.633
-43.341499 -68.711403 560.117
-43.144798 -68.769402 560.59302
-42.949902 -68.831001 561.099
-42.7542 -68.8918 561.599
-42.561901 -68.959 562.14899
-42.369598 -69.026802 562.70502
-42.179901 -69.099503 563.302
-41.9832 -69.161697 563.81201
-41.7817 -69.216499 564.263
-41.584099 -69.278503 564.771
-41.387798 -69.3433 565.302
-41.187801 -69.402702 565.78998
-40.986099 -69.4599 566.26001
-40.785 -69.5187 566.742
-40.582199 -69.575401 567.20801
-40.379398 -69.632599 567.677
-40.174198 -69.686401 568.11902
-39.972401 -69.746696 568.61499
-39.7686 -69.804298 569.08698
-39.562401 -69.858398 569.53198
-39.355701 -69.912201 569.97302
-39.1436 -69.956802 570.34003
-38.9398 -70.017097 570.83502
-38.736301 -70.078796 571.341
-38.532799 -70.140999 571.85101
-38.321499 -70.189796 572.25201
-38.108601 -70.236298 572.63397
-37.9021 -70.295197 573.11798
-37.690601 -70.345398 573.53003
-37.4725 -70.384102 573.84802
-37.254902 -70.424004 574.177
-37.045502 -70.480202 574.638
-36.834 -70.532997 575.07202
-36.623798 -70.588997 575.53198
-36.413399 -70.645401 575.99402
-36.1982 -70.6931 576.38599
-29.200399 -57.792599 471.20801
-29.014099 -57.811901 471.36801
-28.8139 -57.803699 471.30399
-28.6036 -57.775002 471.07199
-28.3967 -57.7528 470.89301
-28.1933 -57.737499 470.771
-27.9923 -57.726898 470.68701
-27.7943 -57.722401 470.65201
-27.594601 -57.714298 470.58899
-67.041 -58.629799 478.948
-66.906097 -58.686501 479.41599
-66.7855 -58.756001 479.98999
-66.645897 -58.809399 480.42999
-66.514198 -58.8699 480.931
-66.393402 -58.940601 481.513
-66.270302 -59.009499 482.08099
-66.142403 -59.074699 482.61899
-66.015297 -59.1409 483.16501
-65.891403 -59.210499 483.73801
-65.765297 -59.2785 484.29901
-65.637604 -59.345501 484.85101
-65.495003 -59.3993 485.29599
-65.3713 -59.470699 485.88501
-65.252296 -59.546799 486.51099
-65.135399 -59.625301 487.15799
-64.999802 -59.687099 487.668
-64.860603 -59.746101 488.155
-64.712502 -59.7971 488.577
-64.505096 -59.9827 490.104
-64.352997 -60.0313 490.505
-64.204498 -60.0835 490.93701
-63.9697 -60.247601 492.28799
-63.8223 -60.302101 492.73801
-63.687801 -60.369099 493.29099
-63.551498 -60.434898 493.83301
-63.4179 -60.5037 494.39999
-63.2855 -60.574001 494.98001
-63.1474 -60.6394 495.51901
-63.013699 -60.7094 496.09601
-62.855999 -60.756599 496.487
-62.630699 -60.939899 497.995
-62.479099 -60.9944 498.44501
-62.335201 -61.056801 498.95999
-62.195099 -61.123299 499.508
-62.0686 -61.203701 500.17001
-61.931099 -61.2738 500.74799
-61.8004 -61.351002 501.383
-61.657001 -61.4161 501.92099
-61.5168 -61.484901 502.48801
-61.374599 -61.552299 503.043
-61.235199 -61.622799 503.62399
-61.092899 -61.690899 504.186
-60.951099 -61.759998 504.755
-60.808102 -61.8283 505.31799
-60.677299 -61.9095 505.987
-60.5317 -61.9762 506.53601
-60.362301 -62.018902 506.89001
-60.110001 -62.194698 508.33701
-59.9436 -62.241699 508.72501
-59.816799 -62.330299 509.45499
-59.672199 -62.400902 510.03601
-59.517502 -62.461399 510.53601
-59.3699 -62.5299 511.10001
-59.219101 -62.595402 511.64001
-59.077 -62.6707 512.26001
-58.927799 -62.738998 512.823
-58.784302 -62.813801 513.43903
-58.6432 -62.891701 514.08099
-58.4944 -62.962002 514.65997
-58.341599 -63.0285 515.20801
-58.187099 -63.093498 515.74402
-58.042801 -63.1702 516.37598
-57.8979 -63.246799 517.00702
-57.743198 -63.313301 517.55402
-57.589001 -63.380699 518.10999
-57.430698 -63.444099 518.633
-57.285 -63.521999 519.27399
-57.1334 -63.593899 519.86603
-56.983398 -63.668098 520.47803
-56.830299 -63.739498 521.06598
-56.672199 -63.805698 521.612
-56.518501 -63.877499 522.203
-56.364601 -63.949501 522.79602
-56.203098 -64.013496 523.323
-56.034901 -64.070297 523.79199
-55.867001 -64.1278 524.26703
-55.706799 -64.194801 524.81897
-55.542099 -64.257004 525.33197
-55.374802 -64.316704 525.82501
-55.201599 -64.370003 526.26501
-55.015301 -64.408501 526.58398
-54.809898 -64.424698 526.71997
-54.594799 -64.429604 526.76501
-54.3806 -64.435699 526.81897
-54.1754 -64.452499 526.961
-53.989201 -64.492104 527.289
-53.818298 -64.5504 527.77002
-53.6516 -64.614304 528.29602
-53.471901 -64.662903 528.698
-53.2873 -64.705902 529.05402
-53.0933 -64.737999 529.32001
-52.898602 -64.769302 529.58099
-52.704201 -64.801399 529.84802
-52.509102 -64.832802 530.10901
-52.3372 -64.893303 530.60797
-52.184399 -64.978104 531.30499
-52.016602 -65.0448 531.85498
-51.3867 -65.370003 534.53003
-51.224998 -65.447701 535.16998
-51.069801 -65.534401 535.883
-50.897499 -65.599899 536.422
-50.7183 -65.656898 536.89301
-50.540298 -65.716003 537.38
-50.367802 -65.782898 537.93103
-50.183601 -65.834999 538.36102
-49.909302 -66.065102 540.25
-49.727901 -66.122902 540.72699
-49.553501 -66.190498 541.284
-49.390701 -66.274399 541.974
-49.190601 -66.3088 542.25897
-48.935799 -66.576202 544.45398
-48.739799 -66.617996 544.79999
-48.570499 -66.696899 545.44897
-48.3951 -66.768204 546.03601
-48.216702 -66.835899 546.59302
-48.044899 -66.913399 547.23102
-47.884201 -67.007301 548.00299
-47.708599 -67.0811 548.60999
-47.5303 -67.151802 549.19202
-47.348499 -67.218102 549.73798
-47.157101 -67.2715 550.17798
-46.963001 -67.321404 550.591
-46.776199 -67.3825 551.09399
-46.591702 -67.447403 551.62799
-46.403 -67.506798 552.11798
-46.216 -67.569397 552.63397
-46.0345 -67.640701 553.22101
-45.857601 -67.719299 553.86798
-45.686798 -67.807999 554.59698
-45.5 -67.873596 555.13702
-45.3008 -67.921402 555.53101
-45.113201 -67.987099 556.07202
-44.9314 -68.062202 556.69
-44.7481 -68.135902 557.297
-44.560299 -68.2033 557.85199
-44.366199 -68.261902 558.33398
-44.176399 -68.327698 558.87598
-43.990002 -68.399498 559.46698
-43.805801 -68.475502 560.09198
-43.6119 -68.537102 560.599
-43.416 -68.596199 561.086
-43.2192 -68.654404 561.56598
-43.026001 -68.719101 562.09802
-42.8307 -68.781097 562.60901
-42.634701 -68.842598 563.11499
-42.442001 -68.910202 563.672
-42.2486 -68.977303 564.224
-42.052601 -69.041 564.74902
-41.8489 -69.092697 565.17603
-41.652599 -69.157303 565.70697
-41.455299 -69.220901 566.23102
-41.254501 -69.279297 566.71198
-41.0527 -69.336899 567.18597
-40.8494 -69.392403 567.64301
-40.6539 -69.4618 568.21503
-40.449001 -69.516098 568.66199
-40.2477 -69.577103 569.16498
-40.0448 -69.6362 569.651
-39.840099 -69.692703 570.11603
-39.635101 -69.749298 570.58301
-39.429199 -69.805099 571.04199
-39.217899 -69.851898 571.42902
-39.012199 -69.9095 571.90302
-38.803398 -69.961998 572.33502
-38.595299 -70.016502 572.784
-38.384399 -70.066498 573.19702
-38.172001 -70.114403 573.59198
-37.9688 -70.18 574.13202
-37.759499 -70.235001 574.58398
-37.549198 -70.288902 575.02899
-37.338799 -70.3433 575.47699
-37.1264 -70.394402 575.89801
-36.9091 -70.437103 576.25
-36.679401 -70.456398 576.41101
-36.486301 -70.5467 577.15302
-36.258598 -70.5709 577.35303
-36.046001 -70.625099 577.79999
-29.025499 -57.638401 471.55801
-28.816401 -57.612598 471.349
-28.607401 -57.5867 471.13901
-28.3995 -57.562698 470.94501
-28.1931 -57.541401 470.77301
-27.992701 -57.532001 470.69901
-27.7934 -57.5247 470.64099
-27.5951 -57.5196 470.60199
-27.3964 -57.5135 470.55399
-67.062599 -58.449001 479.10599
-66.935204 -58.512199 479.629
-66.8097 -58.5774 480.168
-66.670303 -58.630699 480.60999
-66.551903 -58.702801 481.207
-66.425697 -58.7686 481.75101
-66.302803 -58.837601 482.32199
-66.159798 -58.889198 482.75101
-66.039803 -58.961601 483.349
-65.920303 -59.034901 483.95499
-65.797997 -59.106098 484.54401
-65.669502 -59.172199 485.091
-65.538696 -59.236599 485.62399
-65.397202 -59.291698 486.08099
-65.278999 -59.368401 486.715
-65.1493 -59.435101 487.267
-65.019997 -59.502499 487.82501
-64.891296 -59.5709 488.39001
-64.759499 -59.636902 488.936
-64.652901 -59.726501 489.67599
-64.515404 -59.7882 490.18701
-64.376999 -59.8493 490.69299
-64.256599 -59.927601 491.34
-64.139603 -60.009701 492.01801
-64.005699 -60.076302 492.569
-63.8619 -60.134102 493.048
-63.729301 -60.202801 493.617
-63.585701 -60.2616 494.104
-63.4501 -60.3284 494.65601
-63.312801 -60.393902 495.19901
-63.173 -60.4575 495.72501
-63.040501 -60.528599 496.31201
-62.9193 -60.610901 496.992
-62.799999 -60.695702 497.69199
-62.645901 -60.747299 498.12
-62.5047 -60.811699 498.65302
-62.357601 -60.8708 499.14301
-62.227501 -60.946999 499.77301
-62.101501 -61.027699 500.44
-61.973499 -61.106998 501.095
-61.836399 -61.177898 501.681
-61.6912 -61.241199 502.20499
-61.552101 -61.310902 502.78101
-61.409801 -61.377899 503.336
-61.2756 -61.453602 503.961
-61.136299 -61.524601 504.548
-60.989399 -61.588501 505.077
-60.8433 -61.6535 505.61499
-60.710201 -61.7323 506.26599
-60.556801 -61.790901 506.75201
-60.418098 -61.865002 507.36401
-60.2906 -61.951099 508.07401
-60.129902 -62.003502 508.509
-59.989201 -62.077 509.117
-59.849098 -62.151699 509.73401
-59.705399 -62.223099 510.32501
-59.556198 -62.289398 510.87299
-59.401199 -62.349998 511.37399
-59.259998 -62.425598 511.99899
-59.117802 -62.500599 512.61902
-58.9758 -62.576401 513.245
-58.8237 -62.641998 513.78802
-58.6758 -62.712601 514.37201
-58.529499 -62.7855 514.974
-58.379601 -62.8549 515.54797
-58.2295 -62.924599 516.125
-58.078201 -62.993599 516.69501
-57.935902 -63.073002 517.35101
-57.781601 -63.139702 517.90302
-57.6292 -63.209099 518.47601
-57.476799 -63.2789 519.05402
-57.323898 -63.3489 519.63202
-57.169601 -63.417702 520.20099
-57.019501 -63.4916 520.81201
-56.873001 -63.570202 521.46198
-56.7187 -63.6408 522.04498
-56.558899 -63.705601 522.58099
-56.404202 -63.776699 523.16901
-56.242199 -63.84 523.69299
-56.076099 -63.8992 524.18298
-55.909 -63.957802 524.66699
-55.745998 -64.0214 525.19299
-55.580799 -64.083099 525.70398
-55.4086 -64.137001 526.151
-55.2262 -64.179604 526.505
-55.025902 -64.201599 526.69
-54.814098 -64.210297 526.76501
-54.598801 -64.215103 526.80902
-54.393902 -64.232101 526.953
-54.199799 -64.2621 527.203
-54.027401 -64.3181 527.66699
-53.859501 -64.379997 528.17902
-53.687 -64.436897 528.65002
-53.498299 -64.474602 528.96399
-53.304298 -64.506302 529.22803
-53.108799 -64.536499 529.47998
-52.9128 -64.5662 529.72803
-52.7173 -64.596901 529.98401
-52.524601 -64.631302 530.27002
-52.354099 -64.693398 530.784
-52.202999 -64.780098 531.49902
-52.023998 -64.832703 531.935
-51.4049 -65.170601 534.724
-51.234699 -65.237297 535.276
-51.0858 -65.331902 536.05603
-50.914398 -65.3983 536.60498
-50.726002 -65.443398 536.979
-50.535099 -65.485703 537.33002
-50.351601 -65.538002 537.763
-49.4632 -66.145897 542.77502
-48.986198 -66.418098 545.021
-48.798199 -66.470901 545.45801
-48.627102 -66.547501 546.09003
-48.457802 -66.627197 546.74799
-48.2784 -66.693604 547.29797
-48.104599 -66.7686 547.91699
-47.9408 -66.8582 548.65503
-47.7607 -66.925797 549.21503
-47.59 -67.007301 549.88702
-47.412498 -67.080002 550.487
-47.226299 -67.1409 550.99103
-47.0397 -67.201897 551.495
-46.852501 -67.262703 551.99799
-46.6726 -67.334503 552.591
-46.4949 -67.4104 553.21698
-46.308102 -67.473701 553.74103
-46.119801 -67.535301 554.25
-45.9305 -67.596199 554.75403
-45.753899 -67.676498 555.41699
-45.5681 -67.744003 555.974
-45.3722 -67.796997 556.41199
-45.1903 -67.871498 557.02698
-45.004299 -67.940598 557.599
-44.818401 -68.010696 558.177
-44.631699 -68.0802 558.75201
-44.440899 -68.144203 559.28003
-44.246201 -68.202797 559.76398
-44.0574 -68.271301 560.33002
-43.864799 -68.334396 560.85199
-43.675201 -68.403 561.41803
-43.483398 -68.468803 561.96198
-43.295101 -68.540901 562.55701
-43.106098 -68.612801 563.151
-42.909901 -68.673698 563.65399
-42.707901 -68.726097 564.08801
-42.514099 -68.792297 564.63501
-42.3237 -68.864799 565.23401
-42.121899 -68.919403 565.685
-41.921799 -68.9776 566.16602
-41.723202 -69.038696 566.67102
-41.523499 -69.0989 567.16803
-41.320999 -69.1548 567.63098
-41.117298 -69.209602 568.08398
-40.917999 -69.272301 568.60199
-40.717899 -69.334503 569.11603
-40.514702 -69.392097 569.591
-40.312901 -69.452599 570.09198
-40.115101 -69.521004 570.65601
-39.906601 -69.571503 571.07397
-39.701401 -69.628197 571.54303
-39.498001 -69.689003 572.04401
-39.291801 -69.745499 572.51202
-39.0882 -69.807198 573.02197
-38.876202 -69.854797 573.41498
-38.666199 -69.906502 573.84302
-38.457001 -69.960197 574.28699
-38.245499 -70.010498 574.703
-38.038799 -70.070297 575.19702
-37.8297 -70.126297 575.659
-37.621498 -70.1847 576.14203
-37.411701 -70.2407 576.60498
-37.199299 -70.292603 577.034
-36.9762 -70.324997 577.30298
-36.559399 -70.447502 578.315
-29.024799 -57.441101 471.552
-28.8204 -57.424702 471.42001
-28.6092 -57.394299 471.173
-28.4007 -57.369202 470.96899
-28.195 -57.3493 470.80801
-27.9916 -57.333801 470.68399
-27.7931 -57.3283 470.64099
-27.5952 -57.324001 470.60699
-27.3969 -57.318802 470.56699
-27.198799 -57.313999 470.53
-66.949997 -58.325298 479.73999
-66.821098 -58.387299 480.255
-66.6894 -58.4473 480.75299
-66.570396 -58.5187 481.34601
-66.450996 -58.590199 481.939
-66.300697 -58.6348 482.31201
-66.096901 -58.8111 483.772
-65.948799 -58.8587 484.16901
-65.8246 -58.928101 484.745
-65.709999 -59.006599 485.39499
-65.569298 -59.061901 485.85599
-65.444901 -59.1325 486.44101
-65.313202 -59.196701 486.97501
-65.182899 -59.262699 487.52301
-65.042397 -59.319801 487.99701
-64.923798 -59.397202 488.64001
-64.793098 -59.4641 489.19501
-64.672997 -59.5411 489.83301
-64.541298 -59.607899 490.388
-64.413803 -59.6791 490.978
-64.279602 -59.7444 491.521
-64.1651 -59.828499 492.21799
-64.0205 -59.885101 492.68799
-63.889999 -59.9552 493.26999
-63.753399 -60.019901 493.80801
-63.613899 -60.0825 494.327
-63.4856 -60.155998 494.93701
-63.341599 -60.215099 495.42801
-63.190498 -60.267799 495.867
-62.973801 -60.456299 497.42801
-62.819698 -60.507401 497.854
-62.678799 -60.571602 498.38599
-62.520599 -60.619499 498.785
-62.286301 -60.796398 500.25101
-62.138599 -60.855701 500.74399
-62.002701 -60.926998 501.336
-61.8675 -60.999699 501.93799
-61.7257 -61.0662 502.48999
-61.580898 -61.130199 503.022
-61.447201 -61.2057 503.64801
-61.306198 -61.274399 504.21799
-61.162201 -61.3405 504.767
-61.019501 -61.408501 505.33099
-60.884102 -61.4842 505.95901
-60.746399 -61.5583 506.573
-60.599098 -61.622898 507.10999
-60.449799 -61.6861 507.63501
-60.311199 -61.7607 508.25299
-60.1637 -61.8265 508.79999
-60.0261 -61.903198 509.436
-59.885502 -61.9772 510.04901
-59.7355 -62.041901 510.58701
-59.567402 -62.088299 510.97299
-59.183601 -62.356499 513.19397
-59.020302 -62.409801 513.638
-58.874298 -62.4818 514.23499
-58.718498 -62.5439 514.75098
-58.5588 -62.602299 515.23602
-58.411499 -62.6745 515.83502
-58.268398 -62.751701 516.47498
-58.123402 -62.8274 517.10199
-57.9795 -62.9049 517.745
-57.819901 -62.965801 518.25098
-57.662701 -63.0299 518.78302
-57.513802 -63.103401 519.39301
-57.365898 -63.178699 520.01703
-57.212898 -63.248901 520.599
-57.060902 -63.320801 521.19598
-56.911201 -63.395802 521.81799
-56.758598 -63.468102 522.41699
-56.607101 -63.542099 523.03101
-56.448399 -63.6087 523.58301
-56.2869 -63.6726 524.11401
-56.120899 -63.731899 524.60602
-55.951 -63.787201 525.06598
-55.787498 -63.8503 525.59003
-55.617599 -63.906399 526.05603
-55.4384 -63.9524 526.43903
-55.244801 -63.981899 526.68701
-55.035198 -63.993198 526.784
-54.8181 -63.9958 526.80902
-54.611698 -64.010902 526.93799
-54.412998 -64.035202 527.14301
-54.2351 -64.084297 527.55103
-54.064999 -64.143097 528.039
-53.891899 -64.198799 528.50201
-53.708199 -64.242104 528.86298
-53.511299 -64.269997 529.09698
-53.313999 -64.297699 529.32898
-53.117699 -64.326897 529.57397
-52.9231 -64.358299 529.83698
-52.733101 -64.395599 530.14801
-52.542198 -64.432198 530.453
-52.3741 -64.497002 530.99103
-52.204601 -64.560898 531.521
-51.2682 -65.057098 535.63098
-51.102402 -65.129898 536.23499
-50.932098 -65.197701 536.797
-50.738701 -65.236198 537.11798
-50.5462 -65.276398 537.453
-50.3867 -65.359703 538.14301
-49.576698 -66.071297 544.026
-49.4202 -66.164902 544.80103
-49.243301 -66.232002 545.35699
-49.053299 -66.281898 545.77197
-48.876598 -66.350403 546.34003
-48.704498 -66.425697 546.96399
-48.525101 -66.491997 547.513
-48.343601 -66.555702 548.04199
-48.169998 -66.631104 548.66699
-47.994801 -66.704903 549.27899
-47.816002 -66.774399 549.85498
-47.6446 -66.855103 550.52301
-47.466301 -66.926697 551.117
-47.279499 -66.987 551.617
-47.0947 -67.050903 552.146
-46.910801 -67.116402 552.69
-46.732601 -67.191002 553.30798
-46.5536 -67.264999 553.92102
-46.368698 -67.331299 554.47101
-46.179199 -67.391403 554.96997
-45.989101 -67.4515 555.46802
-45.811798 -67.5308 556.125
-45.6315 -67.606598 556.75299
-45.446701 -67.676399 557.33099
-45.260799 -67.745201 557.90198
-45.0709 -67.808899 558.42999
-44.883202 -67.876404 558.98901
-44.695499 -67.944702 559.55499
-44.503101 -68.0065 560.06799
-44.3111 -68.069603 560.59198
-44.121601 -68.137199 561.15198
-43.935902 -68.211403 561.76599
-43.739201 -68.269302 562.24701
-43.544399 -68.330704 562.75598
-43.355499 -68.402199 563.34802
-43.165798 -68.473198 563.93597
-42.9715 -68.537498 564.46899
-42.7715 -68.593498 564.93402
-42.578999 -68.662201 565.50299
-42.380798 -68.722298 566.00201
-42.183498 -68.784599 566.51801
-41.986401 -68.848 567.04401
-41.7896 -68.912598 567.57898
-41.588001 -68.969803 568.05402
-41.381802 -69.020203 568.47198
-41.177601 -69.074303 568.92102
-40.983898 -69.147003 569.52301
-40.789001 -69.2183 570.11401
-40.5797 -69.266098 570.51099
-40.380402 -69.331299 571.052
-40.177502 -69.391403 571.54901
-39.969601 -69.443398 571.98102
-39.762501 -69.497299 572.42798
-39.560501 -69.560898 572.95502
-39.358601 -69.625397 573.48999
-39.1562 -69.689903 574.02399
-38.948399 -69.745499 574.48499
-38.740101 -69.800797 574.94397
-38.5312 -69.855797 575.401
-38.315201 -69.898499 575.755
-38.107201 -69.956398 576.23499
-37.901901 -70.020103 576.763
-37.698299 -70.0877 577.323
-37.487202 -70.142097 577.77399
-37.275398 -70.195999 578.22101
-37.061798 -70.247101 578.64502
-36.864399 -70.329803 579.32898
-36.632702 -70.347801 579.47998
-36.430401 -70.4226 580.09998
-36.204102 -70.452103 580.34497
-28.8167 -57.221199 471.36401
-28.6101 -57.2001 471.19299
-28.4042 -57.180302 471.03201
-28.196501 -57.156502 470.83801
-27.9918 -57.138599 470.69199
-27.792999 -57.1325 470.64499
-27.5951 -57.128101 470.61099
-27.396999 -57.123299 470.573
-27.198999 -57.1185 470.53601
-27.0005 -57.112801 470.491
-66.968498 -58.141602 479.87701
-66.836197 -58.200401 480.36801
-66.711304 -58.266201 480.91599
-66.5783 -58.325199 481.40799
-66.124496 -58.633999 483.978
-65.971901 -58.677601 484.34299
-65.847298 -58.746498 484.91699
-65.727097 -58.819698 485.526
-65.602699 -58.889599 486.108
-65.467796 -58.9505 486.616
-65.347504 -59.024899 487.23499
-65.209503 -59.083698 487.72601
-65.080002 -59.1507 488.284
-64.947701 -59.215599 488.82401
-64.829697 -59.2938 489.47501
-64.702797 -59.364399 490.06299
-64.565201 -59.425701 490.57501
-64.4412 -59.499802 491.19101
-64.3218 -59.5788 491.84799
-64.183197 -59.640301 492.36099
-64.053703 -59.7108 492.948
-63.909901 -59.768299 493.42801
-63.781399 -59.840599 494.03
-63.651699 -59.912201 494.62601
-63.513401 -59.976101 495.159
-63.382599 -60.047699 495.754
-63.252899 -60.120602 496.36099
-63.123199 -60.194099 496.97299
-62.982101 -60.257099 497.49799
-62.8419 -60.3214 498.034
-62.702301 -60.3867 498.578
-62.571098 -60.460602 499.19299
-62.4459 -60.540699 499.85999
-62.309799 -60.610802 500.44299
-62.172699 -60.6805 501.02301
-62.0313 -60.7463 501.57199
-61.890099 -60.812901 502.12601
-61.7505 -60.881401 502.69699
-61.6129 -60.9524 503.28799
-61.483299 -61.031799 503.948
-61.344898 -61.102901 504.54001
-61.196602 -61.164799 505.056
-61.052399 -61.231098 505.608
-60.909599 -61.299198 506.17599
-60.780399 -61.381599 506.86099
-60.637501 -61.450699 507.43701
-60.494999 -61.520699 508.01901
-60.347198 -61.585701 508.561
-60.203201 -61.655102 509.13901
-60.064701 -61.730801 509.76801
-59.9184 -61.798801 510.33401
-59.7673 -61.862301 510.86401
-59.623901 -61.934299 511.46301
-59.507 -62.0345 512.29498
-59.366501 -62.110699 512.92902
-59.204102 -62.164398 513.37701
-59.0495 -62.2267 513.89697
-58.9091 -62.304501 514.54401
-58.756001 -62.369499 515.08502
-58.585499 -62.416302 515.47601
-58.4496 -62.5005 516.17603
-58.303699 -62.5746 516.79303
-58.159698 -62.651299 517.43103
-58.023499 -62.7369 518.14301
-57.8596 -62.793201 518.612
-57.707802 -62.862999 519.19299
-57.550098 -62.926998 519.72601
-57.405602 -63.005901 520.383
-57.263199 -63.0877 521.06201
-57.1036 -63.1511 521.591
-56.954498 -63.226601 522.21899
-56.8032 -63.300301 522.83197
-56.6436 -63.365299 523.37299
-56.4842 -63.431 523.91998
-56.323002 -63.495201 524.45502
-56.156399 -63.553799 524.94397
-55.989101 -63.612 525.42902
-55.820499 -63.669102 525.90503
-55.645901 -63.719898 526.32898
-55.4599 -63.7579 526.64801
-55.2556 -63.7752 526.79498
-55.0406 -63.7803 526.841
-54.830002 -63.790401 526.92902
-54.627399 -63.809898 527.09497
-54.451099 -63.8605 527.51703
-54.274502 -63.911098 527.93903
-54.103802 -63.969101 528.42297
-53.9146 -64.005798 528.72998
-53.7192 -64.035202 528.97699
-53.5229 -64.063797 529.21802
-53.327499 -64.093803 529.46899
-53.137798 -64.130699 529.77899
-52.941299 -64.159798 530.02399
-52.7607 -64.208603 530.43103
-52.579601 -64.257103 530.836
-52.406101 -64.315399 531.32202
-52.2421 -64.385803 531.90698
-52.059601 -64.433998 532.30902
-51.143299 -64.958801 536.66998
-50.948002 -64.994598 536.96899
-50.7519 -65.029701 537.26398
-50.576199 -65.091301 537.77698
-50.520901 -65.309303 539.58197
-50.438599 -65.493896 541.11102
-50.2929 -65.597702 541.97302
-50.1376 -65.689796 542.73798
-49.968399 -65.764297 543.35797
-49.7962 -65.835701 543.95099
-49.615501 -65.8964 544.45697
-49.445702 -65.972198 545.08698
-49.273701 -66.045799 545.69897
-49.108299 -66.128899 546.38898
-48.940102 -66.2089 547.05499
-48.763802 -66.278801 547.63599
-48.5807 -66.339996 548.14502
-48.402901 -66.409103 548.71997
-48.2257 -66.4795 549.30603
-48.052299 -66.556099 549.94202
-47.871601 -66.6231 550.5
-47.7006 -66.7043 551.17499
-47.518101 -66.770203 551.72302
-47.333099 -66.833199 552.24799
-47.147202 -66.895599 552.76703
-46.9711 -66.972504 553.40698
-46.792 -67.045799 554.01599
-46.6133 -67.120499 554.63702
-46.429501 -67.188599 555.203
-46.247299 -67.259598 555.79401
-46.0616 -67.326302 556.349
-45.8801 -67.399696 556.95898
-45.6996 -67.475502 557.58899
-45.5121 -67.541496 558.138
-45.3242 -67.607697 558.68903
-45.133301 -67.670097 559.20801
-44.942699 -67.733597 559.737
-44.757 -67.805099 560.33099
-44.558899 -67.858597 560.776
-44.368999 -67.925003 561.32898
-44.1838 -67.999496 561.948
-43.994099 -68.067802 562.51599
-43.8009 -68.131401 563.04602
-43.603199 -68.188499 563.521
-43.412701 -68.257797 564.09698
-43.221699 -68.326897 564.672
-43.029499 -68.394798 565.23602
-42.834499 -68.459099 565.771
-42.639599 -68.5242 566.31299
-42.443501 -68.588203 566.84497
-42.243301 -68.646103 567.32703
-42.0485 -68.713501 567.88702
-41.852001 -68.778999 568.43201
-41.6516 -68.8386 568.92798
-41.448898 -68.895302 569.40002
-41.247501 -68.954697 569.89398
-41.0518 -69.0243 570.47302
-40.8568 -69.096001 571.06799
-40.653 -69.153503 571.547
-40.447701 -69.209 572.00897
-40.2453 -69.270401 572.52002
-40.040298 -69.327797 572.99799
-39.836899 -69.388901 573.50598
-39.631001 -69.446198 573.98297
-39.424099 -69.502502 574.45099
-39.2211 -69.566399 574.98199
-39.014 -69.623703 575.46002
-38.809299 -69.686096 575.97803
-38.602501 -69.7453 576.46997
-38.388401 -69.792099 576.86102
-38.1777 -69.845802 577.30798
-37.970901 -69.907204 577.81799
-37.7673 -69.975502 578.38599
-37.557598 -70.033203 578.86603
-37.3475 -70.090897 579.34601
-37.136299 -70.147102 579.81403
-36.918701 -70.192101 580.18903
-36.695202 -70.226303 580.474
-36.479301 -70.275597 580.88501
-36.2477 -70.295097 581.04901
-28.817301 -57.026402 471.379
-28.6124 -57.0089 471.23599
-28.405001 -56.986 471.04901
-28.1971 -56.962002 470.854
-27.993 -56.945301 470.71701
-27.792101 -56.934799 470.633
-27.594601 -56.931499 470.608
-27.3969 -56.927299 470.57599
-27.1975 -56.9198 470.51599
-27.000401 -56.916901 470.49399
-26.8029 -56.913101 470.465
-66.984901 -57.955799 479.99899
-66.861099 -58.0219 480.55099
-66.732201 -58.084 481.07101
-66.627502 -58.1675 481.76801
-66.5159 -58.245602 482.41901
-66.394501 -58.315399 483.00299
-66.268097 -58.381401 483.55399
-66.135002 -58.4417 484.06
-65.994499 -58.495899 484.51401
-65.874802 -58.569 485.12399
-65.754898 -58.6423 485.73599
-65.617203 -58.7001 486.22
-65.495003 -58.772202 486.823
-65.363602 -58.836498 487.35999
-65.242203 -58.910198 487.97501
-65.098198 -58.963799 488.42499
-64.885002 -59.1404 489.89801
-64.733398 -59.188301 490.29999
-64.592598 -59.246498 490.78699
-64.4701 -59.321899 491.41599
-64.3452 -59.3955 492.03201
-64.219101 -59.468601 492.642
-64.079597 -59.529598 493.15201
-63.944801 -59.595402 493.702
-63.812599 -59.664101 494.276
-63.676201 -59.729198 494.82101
-63.5443 -59.799 495.40399
-63.410099 -59.8671 495.974
-63.282501 -59.942001 496.59799
-63.146099 -60.0089 497.15799
-63.009998 -60.0765 497.72299
-62.866001 -60.1371 498.23001
-62.7323 -60.207901 498.82199
-62.598598 -60.279202 499.41699
-62.480598 -60.366199 500.142
-62.340698 -60.432499 500.69699
-62.210701 -60.508801 501.33401
-62.0639 -60.569401 501.841
-61.920898 -60.6339 502.38
-61.773602 -60.694801 502.88901
-61.635101 -60.764702 503.474
-61.512798 -60.851101 504.19501
-61.3769 -60.924599 504.80899
-61.239498 -60.9972 505.414
-61.092201 -61.060299 505.94299
-60.9468 -61.125801 506.48999
-60.7966 -61.186901 507.00101
-60.660801 -61.263 507.63699
-60.516899 -61.331402 508.20801
-60.3811 -61.408501 508.85101
-60.241798 -61.482601 509.47
-60.107399 -61.562302 510.13501
-59.9575 -61.626499 510.672
-59.807301 -61.690899 511.211
-59.6576 -61.756302 511.758
-59.5299 -61.845001 512.49701
-59.387798 -61.9193 513.11798
-59.237499 -61.985699 513.672
