ply
format ascii 1.0
comment Created by CloudCompare v2.11.3 (Anoia)
comment Created 2024/5/26 上午10:47
obj_info Generated by CloudCompare!
element vertex 1265
property float x
property float y
property float z
property uchar red
property uchar green
property uchar blue
property float scalar_Scalar_field
end_header
-54.0372 -70.3812 491.437 47 47 47 0 
-53.8672 -70.4267 491.758 44 44 44 0 
-53.6993 -70.4752 492.102 50 50 50 0 
-53.5324 -70.5253 492.456 42 42 42 0 
-53.366 -70.5766 492.818 39 39 39 0 
-53.195 -70.6221 493.14 44 44 44 0 
-53.0278 -70.673 493.499 45 45 45 0 
-52.8542 -70.7158 493.802 47 47 47 0 
-52.6816 -70.7602 494.116 44 44 44 0 
-52.5094 -70.8057 494.438 41 41 41 0 
-52.3413 -70.8568 494.799 47 47 47 0 
-52.1684 -70.9019 495.118 46 46 46 0 
-51.9979 -70.9508 495.464 49 49 49 0 
-51.8235 -70.9945 495.773 43 43 43 0 
-51.6521 -71.0429 496.115 35 35 35 0 
-51.474 -71.0822 496.393 38 38 38 0 
-51.2996 -71.1272 496.712 43 43 43 0 
-51.1295 -71.1784 497.073 47 47 47 0 
-50.9567 -71.2261 497.411 41 41 41 0 
-50.7778 -71.2659 497.692 38 38 38 0 
-50.6026 -71.3111 498.012 45 45 45 0 
-50.4288 -71.3587 498.348 58 58 58 0 
-50.2479 -71.3966 498.617 51 51 51 0 
-50.0727 -71.4429 498.945 44 44 44 0 
-49.8968 -71.4886 499.267 42 42 42 0 
-49.7172 -71.5294 499.556 44 44 44 0 
-49.534 -71.5653 499.811 49 49 49 0 
-49.3528 -71.6045 500.088 51 51 51 0 
-49.1692 -71.6404 500.343 42 42 42 0 
-48.9841 -71.6746 500.585 43 43 43 0 
-48.7983 -71.7078 500.821 44 44 44 0 
-48.6139 -71.7435 501.075 43 43 43 0 
-48.4319 -71.783 501.355 48 48 48 0 
-48.2491 -71.8217 501.629 47 47 47 0 
-48.0655 -71.8596 501.897 47 47 47 0 
-47.8808 -71.8962 502.156 47 47 47 0 
-47.6914 -71.9259 502.368 60 60 60 0 
-47.5044 -71.9595 502.606 50 50 50 0 
-47.3191 -71.996 502.865 44 44 44 0 
-47.1314 -72.0292 503.101 46 46 46 0 
-43.9911 -72.378 505.595 54 54 54 0 
-43.7879 -72.3901 505.682 53 53 53 0 
-43.5837 -72.4007 505.76 48 48 48 0 
-43.3793 -72.4111 505.836 52 52 52 0 
-43.173 -72.4183 505.89 51 51 51 0 
-42.9641 -72.4212 505.913 50 50 50 0 
-42.7525 -72.4197 505.906 51 51 51 0 
-42.5444 -72.424 505.94 55 55 55 0 
-42.3376 -72.4307 505.99 58 58 58 0 
-42.1262 -72.4294 505.984 55 55 55 0 
-41.9068 -72.4144 505.882 55 55 55 0 
-41.6872 -72.3987 505.776 53 53 53 0 
-41.4746 -72.3954 505.756 57 57 57 0 
-41.2594 -72.3872 505.702 57 57 57 0 
-41.0382 -72.3685 505.575 55 55 55 0 
-40.8169 -72.3493 505.444 59 59 59 0 
-40.5905 -72.3208 505.249 52 52 52 0 
-40.3564 -72.2783 504.955 55 55 55 0 
-40.124 -72.2385 504.679 59 59 59 0 
-39.8943 -72.2031 504.435 58 58 58 0 
-39.6623 -72.163 504.159 56 56 56 0 
-39.4245 -72.1121 503.806 57 57 57 0 
-39.1778 -72.0442 503.335 64 64 64 0 
-38.915 -71.9457 502.65 62 62 62 0 
-38.6573 -71.8557 502.024 67 67 67 0 
-38.4664 -71.8895 502.263 64 64 64 0 
-59.0205 -68.5926 480.215 32 32 32 0 
-58.8691 -68.6494 480.618 30 30 30 0 
-58.7152 -68.7037 481.002 36 36 36 0 
-58.5675 -68.7655 481.439 42 42 42 0 
-58.4184 -68.8262 481.869 39 39 39 0 
-58.2667 -68.8843 482.28 31 31 31 0 
-58.1067 -68.9328 482.624 35 35 35 0 
-57.9554 -68.9921 483.044 35 35 35 0 
-57.7983 -69.0449 483.418 42 42 42 0 
-57.6432 -69.1003 483.811 35 35 35 0 
-57.4849 -69.1525 484.18 34 34 34 0 
-57.3319 -69.2112 484.596 35 35 35 0 
-57.1776 -69.2689 485.004 44 44 44 0 
-57.0212 -69.3245 485.398 34 34 34 0 
-56.8674 -69.3836 485.816 32 32 32 0 
-56.7061 -69.4339 486.173 40 40 40 0 
-56.5439 -69.4835 486.524 39 39 39 0 
-56.3877 -69.5409 486.93 34 34 34 0 
-56.2299 -69.5966 487.325 38 38 38 0 
-56.0744 -69.6557 487.743 37 37 37 0 
-55.9127 -69.7074 488.11 35 35 35 0 
-55.7481 -69.7558 488.453 40 40 40 0 
-55.5894 -69.8121 488.852 38 38 38 0 
-55.4282 -69.8656 489.231 43 43 43 0 
-55.2658 -69.9179 489.601 42 42 42 0 
-55.1046 -69.9723 489.986 39 39 39 0 
-54.9422 -70.0255 490.363 40 40 40 0 
-54.7777 -70.0764 490.724 39 39 39 0 
-54.6134 -70.1279 491.089 39 39 39 0 
-54.4459 -70.1757 491.428 41 41 41 0 
-54.2809 -70.227 491.791 48 48 48 0 
-54.1142 -70.2767 492.143 43 43 43 0 
-53.9454 -70.3239 492.478 50 50 50 0 
-53.7789 -70.3744 492.836 47 47 47 0 
-53.6131 -70.4262 493.203 38 38 38 0 
-53.4494 -70.4813 493.593 43 43 43 0 
-53.2797 -70.5288 493.93 43 43 43 0 
-53.1086 -70.5749 494.257 42 42 42 0 
-52.9408 -70.6257 494.617 46 46 46 0 
-52.7685 -70.6709 494.938 42 42 42 0 
-52.6016 -70.7236 495.311 40 40 40 0 
-52.4313 -70.7723 495.656 41 41 41 0 
-52.262 -70.8227 496.013 43 43 43 0 
-52.0885 -70.8676 496.332 40 40 40 0 
-51.9166 -70.9153 496.67 42 42 42 0 
-51.7424 -70.9601 496.988 44 44 44 0 
-51.5659 -71.0021 497.286 43 43 43 0 
-51.3898 -71.045 497.59 39 39 39 0 
-51.2205 -71.0976 497.963 40 40 40 0 
-51.0443 -71.1412 498.272 50 50 50 0 
-50.8716 -71.1899 498.617 44 44 44 0 
-50.6936 -71.2316 498.913 42 42 42 0 
-50.5155 -71.2735 499.211 53 53 53 0 
-50.3366 -71.3147 499.503 53 53 53 0 
-50.164 -71.365 499.859 38 38 38 0 
-49.9903 -71.4144 500.209 47 47 47 0 
-49.8081 -71.4517 500.475 47 47 47 0 
-49.6214 -71.4831 500.698 45 45 45 0 
-49.4382 -71.5198 500.959 50 50 50 0 
-49.2592 -71.5629 501.265 42 42 42 0 
-49.0775 -71.6023 501.545 38 38 38 0 
-48.8987 -71.6464 501.858 44 44 44 0 
-48.715 -71.6836 502.122 43 43 43 0 
-48.5326 -71.7232 502.403 48 48 48 0 
-48.3489 -71.761 502.672 48 48 48 0 
-48.1622 -71.7948 502.912 55 55 55 0 
-47.9747 -71.8276 503.146 51 51 51 0 
-47.7837 -71.8555 503.346 57 57 57 0 
-47.6011 -71.8963 503.635 54 54 54 0 
-47.4191 -71.9383 503.933 45 45 45 0 
-47.2316 -71.9725 504.176 50 50 50 0 
-47.0407 -72.0016 504.384 51 51 51 0 
-46.8497 -72.031 504.593 43 43 43 0 
-46.6622 -72.0659 504.841 43 43 43 0 
-46.4727 -72.0981 505.071 45 45 45 0 
-46.2766 -72.1203 505.23 44 44 44 0 
-43.9078 -72.3773 507.073 51 51 51 0 
-43.7076 -72.3953 507.203 47 47 47 0 
-43.5069 -72.4129 507.33 48 48 48 0 
-43.3012 -72.4221 507.398 53 53 53 0 
-43.091 -72.4239 507.413 48 48 48 0 
-42.8802 -72.4248 507.423 46 46 46 0 
-42.6737 -72.433 507.484 49 49 49 0 
-42.4672 -72.4411 507.544 57 57 57 0 
-42.2585 -72.4456 507.579 58 58 58 0 
-42.0429 -72.4383 507.531 51 51 51 0 
-41.8258 -72.4283 507.465 51 51 51 0 
-41.6102 -72.4208 507.415 59 59 59 0 
-41.3976 -72.4185 507.402 57 57 57 0 
-41.1831 -72.4128 507.366 55 55 55 0 
-40.9637 -72.3983 507.268 54 54 54 0 
-40.7379 -72.3724 507.089 59 59 59 0 
-40.5106 -72.3435 506.89 56 56 56 0 
-40.2847 -72.3169 506.707 57 57 57 0 
-40.0546 -72.2824 506.468 55 55 55 0 
-39.8264 -72.2509 506.251 60 60 60 0 
-39.593 -72.2096 505.965 60 60 60 0 
-39.3488 -72.1481 505.537 58 58 58 0 
-39.1086 -72.0934 505.157 62 62 62 0 
-38.8689 -72.0389 504.778 57 57 57 0 
-38.6217 -71.9699 504.298 64 64 64 0 
-38.395 -71.9385 504.08 62 62 62 0 
-38.1665 -71.9035 503.838 62 62 62 0 
-59.2441 -68.4198 480.407 39 39 39 0 
-59.0986 -68.483 480.856 41 41 41 0 
-58.9431 -68.5353 481.227 28 28 28 0 
-58.7884 -68.5887 481.607 39 39 39 0 
-58.6408 -68.6509 482.048 40 40 40 0 
-58.4937 -68.7139 482.495 35 35 35 0 
-58.3388 -68.7684 482.882 34 34 34 0 
-58.1829 -68.8219 483.263 36 36 36 0 
-58.0238 -68.872 483.619 34 34 34 0 
-57.8708 -68.9298 484.029 40 40 40 0 
-57.7123 -68.9814 484.396 32 32 32 0 
-57.5614 -69.0425 484.83 38 38 38 0 
-57.4101 -69.1036 485.263 39 39 39 0 
-57.2517 -69.1565 485.639 42 42 42 0 
-57.0999 -69.2177 486.073 48 48 48 0 
-56.9418 -69.2717 486.457 36 36 36 0 
-56.7798 -69.3213 486.81 35 35 35 0 
-56.6263 -69.3818 487.239 39 39 39 0 
-56.4681 -69.4369 487.63 44 44 44 0 
-56.3085 -69.4906 488.012 34 34 34 0 
-56.1501 -69.5462 488.406 42 42 42 0 
-55.9868 -69.5961 488.762 37 37 37 0 
-55.8246 -69.6479 489.129 36 36 36 0 
-55.6639 -69.7018 489.512 38 38 38 0 
-55.5035 -69.7564 489.9 35 35 35 0 
-55.3436 -69.8122 490.296 35 35 35 0 
-55.1855 -69.8706 490.711 37 37 37 0 
-55.0196 -69.9196 491.059 37 37 37 0 
-54.8557 -69.9715 491.428 45 45 45 0 
-54.6933 -70.0256 491.812 38 38 38 0 
-54.5267 -70.0749 492.163 38 38 38 0 
-54.3591 -70.1231 492.505 46 46 46 0 
-54.191 -70.1711 492.847 44 44 44 0 
-54.0199 -70.2156 493.163 53 53 53 0 
-53.8548 -70.2682 493.537 44 44 44 0 
-53.6934 -70.326 493.948 32 32 32 0 
-53.5241 -70.374 494.289 40 40 40 0 
-53.3567 -70.4248 494.65 41 41 41 0 
-53.1918 -70.4793 495.037 38 38 38 0 
-53.0262 -70.5333 495.42 45 45 45 0 
-52.8549 -70.5802 495.753 39 39 39 0 
-52.6843 -70.6282 496.095 43 43 43 0 
-52.5131 -70.6759 496.434 45 45 45 0 
-52.3423 -70.7246 496.78 42 42 42 0 
-52.1728 -70.7753 497.141 43 43 43 0 
-52.0027 -70.8257 497.499 38 38 38 0 
-51.8336 -70.8778 497.869 43 43 43 0 
-51.6579 -70.9213 498.178 40 40 40 0 
-51.4839 -70.9675 498.507 41 41 41 0 
-51.3064 -71.0091 498.803 43 43 43 0 
-51.1332 -71.0572 499.145 47 47 47 0 
-50.9573 -71.1018 499.463 40 40 40 0 
-50.788 -71.1561 499.848 37 37 37 0 
-50.6101 -71.1987 500.151 41 41 41 0 
-50.4281 -71.2359 500.417 41 41 41 0 
-50.2549 -71.2858 500.771 49 49 49 0 
-50.0757 -71.3277 501.069 49 49 49 0 
-49.8955 -71.3684 501.359 47 47 47 0 
-49.7133 -71.4067 501.632 45 45 45 0 
-49.532 -71.4465 501.915 40 40 40 0 
-49.3539 -71.4913 502.234 44 44 44 0 
-49.1744 -71.5345 502.541 39 39 39 0 
-48.9908 -71.572 502.809 44 44 44 0 
-48.8113 -71.6159 503.121 38 38 38 0 
-48.6294 -71.6566 503.411 43 43 43 0 
-48.4446 -71.6934 503.673 44 44 44 0 
-48.26 -71.7308 503.939 52 52 52 0 
-48.0729 -71.7648 504.182 45 45 45 0 
-47.8837 -71.7959 504.405 47 47 47 0 
-47.7006 -71.8365 504.694 48 48 48 0 
-47.5158 -71.8749 504.967 47 47 47 0 
-47.3292 -71.9109 505.224 47 47 47 0 
-47.1406 -71.9441 505.46 49 49 49 0 
-46.9538 -71.9805 505.72 45 45 45 0 
-46.7685 -72.0194 505.997 46 46 46 0 
-46.578 -72.0506 506.22 52 52 52 0 
-46.3862 -72.0803 506.432 47 47 47 0 
-46.1878 -72.0997 506.572 45 45 45 0 
-45.9886 -72.1182 506.706 49 49 49 0 
-45.7955 -72.1463 506.907 44 44 44 0 
-45.6056 -72.1799 507.147 47 47 47 0 
-45.4116 -72.2071 507.342 48 48 48 0 
-44.0231 -72.3557 508.41 52 52 52 0 
-43.8246 -72.3775 508.567 47 47 47 0 
-43.6237 -72.3955 508.697 47 47 47 0 
-43.4181 -72.4059 508.774 52 52 52 0 
-43.2133 -72.4178 508.86 47 47 47 0 
-43.0086 -72.4298 508.948 52 52 52 0 
-42.8034 -72.4412 509.032 55 55 55 0 
-42.597 -72.4506 509.101 57 57 57 0 
-42.3883 -72.4562 509.144 53 53 53 0 
-42.1792 -72.4612 509.182 53 53 53 0 
-41.9696 -72.4653 509.214 52 52 52 0 
-41.7526 -72.4567 509.157 55 55 55 0 
-41.5355 -72.4477 509.098 53 53 53 0 
-41.3191 -72.44 509.046 56 56 56 0 
-41.0964 -72.421 508.916 53 53 53 0 
-40.8747 -72.4036 508.798 58 58 58 0 
-40.6546 -72.389 508.698 58 58 58 0 
-40.4373 -72.3792 508.632 58 58 58 0 
-40.2174 -72.3645 508.532 57 57 57 0 
-39.9895 -72.3353 508.33 61 61 61 0 
-39.7637 -72.3095 508.152 61 61 61 0 
-39.5343 -72.2768 507.926 60 60 60 0 
-39.2954 -72.2264 507.574 62 62 62 0 
-39.0488 -72.1612 507.119 60 60 60 0 
-38.8033 -72.0974 506.674 65 65 65 0 
-38.5542 -72.0262 506.177 67 67 67 0 
-38.2943 -71.9338 505.531 65 65 65 0 
-38.0986 -71.9616 505.729 60 60 60 0 
-59.464 -68.2423 480.567 37 37 37 0 
-59.3182 -68.3049 481.013 35 35 35 0 
-59.1668 -68.3616 481.417 35 35 35 0 
-59.018 -68.4217 481.844 45 45 45 0 
-58.8599 -68.4712 482.198 33 33 33 0 
-58.7122 -68.5333 482.64 28 28 28 0 
-58.5629 -68.5941 483.072 44 44 44 0 
-58.412 -68.6532 483.493 44 44 44 0 
-58.2529 -68.7032 483.85 28 28 28 0 
-58.0996 -68.7603 484.256 34 34 34 0 
-57.9442 -68.8154 484.649 42 42 42 0 
-57.7877 -68.8695 485.034 45 45 45 0 
-57.6385 -68.9328 485.484 40 40 40 0 
-57.4851 -68.9914 485.902 37 37 37 0 
-57.329 -69.0472 486.299 42 42 42 0 
-57.1709 -69.101 486.683 47 47 47 0 
-57.0204 -69.1645 487.134 38 38 38 0 
-56.8653 -69.2227 487.549 34 34 34 0 
-56.7059 -69.276 487.929 34 34 34 0 
-56.5447 -69.3276 488.297 38 38 38 0 
-56.3832 -69.3793 488.665 35 35 35 0 
-56.2216 -69.431 489.034 37 37 37 0 
-56.0635 -69.4877 489.437 33 33 33 0 
-55.9068 -69.5464 489.855 36 36 36 0 
-55.7461 -69.6005 490.241 35 35 35 0 
-55.5824 -69.6512 490.602 34 34 34 0 
-55.4213 -69.7058 490.991 35 35 35 0 
-55.2556 -69.7548 491.34 37 37 37 0 
-55.0938 -69.809 491.726 41 41 41 0 
-54.9308 -69.8623 492.106 37 37 37 0 
-54.7697 -69.9184 492.505 36 36 36 0 
-54.6062 -69.9717 492.885 43 43 43 0 
-54.4384 -70.02 493.23 40 40 40 0 
-54.2657 -70.0622 493.531 36 36 36 0 
-54.0975 -70.1107 493.877 46 46 46 0 
-53.9393 -70.1726 494.317 39 39 39 0 
-53.7761 -70.2284 494.714 32 32 32 0 
-53.6066 -70.2763 495.056 34 34 34 0 
-53.4369 -70.3244 495.399 38 38 38 0 
-53.2723 -70.3794 495.791 41 41 41 0 
-53.1083 -70.4359 496.193 41 41 41 0 
-52.9378 -70.4841 496.537 41 41 41 0 
-52.7628 -70.5266 496.84 41 41 41 0 
-52.5957 -70.5801 497.221 36 36 36 0 
-52.4261 -70.6306 497.581 36 36 36 0 
-52.2576 -70.683 497.955 39 39 39 0 
-52.0909 -70.7384 498.348 40 40 40 0 
-51.9234 -70.793 498.737 39 39 39 0 
-51.7509 -70.8411 499.081 43 43 43 0 
-51.5754 -70.8857 499.398 39 39 39 0 
-51.4015 -70.9328 499.734 44 44 44 0 
-51.2251 -70.9767 500.048 40 40 40 0 
-51.052 -71.0256 500.397 38 38 38 0 
-50.8789 -71.075 500.748 42 42 42 0 
-50.7009 -71.1178 501.054 45 45 45 0 
-50.5214 -71.1589 501.347 40 40 40 0 
-50.3419 -71.2003 501.643 39 39 39 0 
-50.1643 -71.2448 501.961 45 45 45 0 
-49.9839 -71.2857 502.253 43 43 43 0 
-49.8065 -71.3313 502.578 40 40 40 0 
-49.6277 -71.3752 502.891 38 38 38 0 
-49.4511 -71.4225 503.228 39 39 39 0 
-49.2704 -71.4645 503.528 45 45 45 0 
-49.0904 -71.5077 503.836 46 46 46 0 
-48.9075 -71.5472 504.118 42 42 42 0 
-48.7295 -71.594 504.452 45 45 45 0 
-48.543 -71.6289 504.702 39 39 39 0 
-48.3567 -71.6643 504.955 48 48 48 0 
-48.1694 -71.6985 505.2 45 45 45 0 
-47.9843 -71.7363 505.47 42 42 42 0 
-47.7992 -71.7744 505.742 49 49 49 0 
-47.6165 -71.8165 506.043 42 42 42 0 
-47.43 -71.8533 506.305 44 44 44 0 
-47.2443 -71.8915 506.579 45 45 45 0 
-47.0554 -71.9252 506.82 50 50 50 0 
-46.8679 -71.9613 507.078 50 50 50 0 
-46.6775 -71.9933 507.307 46 46 46 0 
-46.4859 -72.0239 507.526 48 48 48 0 
-46.293 -72.0526 507.732 51 51 51 0 
-46.0989 -72.0797 507.927 49 49 49 0 
-45.9056 -72.1083 508.132 46 46 46 0 
-45.7149 -72.1413 508.368 49 49 49 0 
-45.5173 -72.1636 508.529 48 48 48 0 
-45.3249 -72.1943 508.749 45 45 45 0 
-45.1316 -72.224 508.962 48 48 48 0 
-44.9346 -72.248 509.134 51 51 51 0 
-44.7369 -72.2712 509.302 51 51 51 0 
-44.535 -72.2877 509.421 50 50 50 0 
-44.335 -72.3075 509.564 48 48 48 0 
-44.1337 -72.3252 509.693 45 45 45 0 
-43.9346 -72.347 509.85 52 52 52 0 
-43.736 -72.3697 510.013 54 54 54 0 
-43.5334 -72.3858 510.13 49 49 49 0 
-43.328 -72.3975 510.216 48 48 48 0 
-43.1238 -72.4113 510.317 49 49 49 0 
-42.9192 -72.4246 510.414 48 48 48 0 
-42.7115 -72.4329 510.475 51 51 51 0 
-42.503 -72.4398 510.528 54 54 54 0 
-42.2942 -72.4462 510.576 52 52 52 0 
-42.0862 -72.4542 510.635 55 55 55 0 
-41.8741 -72.4549 510.644 52 52 52 0 
-41.6664 -72.4635 510.708 57 57 57 0 
-41.4576 -72.4703 510.759 53 53 53 0 
-41.2371 -72.4565 510.665 56 56 56 0 
-41.0164 -72.4421 510.567 56 56 56 0 
-40.7974 -72.4307 510.49 51 51 51 0 
-40.5783 -72.419 510.411 54 54 54 0 
-40.3585 -72.4059 510.322 58 58 58 0 
-40.1386 -72.3926 510.231 60 60 60 0 
-39.9172 -72.3763 510.12 57 57 57 0 
-39.6881 -72.3458 509.908 56 56 56 0 
-39.4578 -72.3128 509.678 58 58 58 0 
-39.2273 -72.2791 509.444 55 55 55 0 
-38.9901 -72.2327 509.12 56 56 56 0 
-38.758 -72.1951 508.858 60 60 60 0 
-38.523 -72.1517 508.555 60 60 60 0 
-38.2702 -72.0743 508.013 58 58 58 0 
-38.0477 -72.0535 507.869 61 61 61 0 
-37.83 -72.0417 507.789 61 61 61 0 
-59.6808 -68.0609 480.701 42 42 42 0 
-59.533 -68.121 481.13 37 37 37 0 
-59.3893 -68.1861 481.594 36 36 36 0 
-59.2402 -68.2456 482.019 39 39 39 0 
-59.0869 -68.3006 482.412 38 38 38 0 
-58.9365 -68.3592 482.831 34 34 34 0 
-58.7822 -68.4137 483.22 44 44 44 0 
-58.6304 -68.4717 483.634 48 48 48 0 
-58.4775 -68.5286 484.04 26 26 26 0 
-58.3285 -68.5905 484.483 28 28 28 0 
-58.1748 -68.6474 484.889 36 36 36 0 
-58.0167 -68.6993 485.26 36 36 36 0 
-57.859 -68.7522 485.638 48 48 48 0 
-57.7081 -68.8135 486.076 34 34 34 0 
-57.5564 -68.8743 486.51 38 38 38 0 
-57.3989 -68.9286 486.898 44 44 44 0 
-57.2502 -68.9939 487.363 42 42 42 0 
-57.0951 -69.0518 487.777 41 41 41 0 
-56.9404 -69.1107 488.197 36 36 36 0 
-56.7824 -69.166 488.593 39 39 39 0 
-56.6154 -69.2107 488.913 39 39 39 0 
-56.4521 -69.2603 489.267 42 42 42 0 
-56.2965 -69.3196 489.69 48 48 48 0 
-56.1395 -69.3777 490.106 30 30 30 0 
-55.9868 -69.4416 490.561 29 29 29 0 
-55.8255 -69.4952 490.944 37 37 37 0 
-55.6633 -69.548 491.321 35 35 35 0 
-55.4953 -69.594 491.651 37 37 37 0 
-55.3355 -69.6507 492.056 37 37 37 0 
-55.174 -69.7056 492.448 35 35 35 0 
-55.0113 -69.7594 492.832 36 36 36 0 
-54.8501 -69.8155 493.233 37 37 37 0 
-54.6841 -69.866 493.594 40 40 40 0 
-54.5175 -69.9161 493.952 41 41 41 0 
-54.3479 -69.9625 494.285 36 36 36 0 
-54.1806 -70.0125 494.641 36 36 36 0 
-54.0224 -70.0744 495.084 37 37 37 0 
-53.8608 -70.1326 495.499 41 41 41 0 
-53.6886 -70.1773 495.818 42 42 42 0 
-53.5193 -70.2262 496.168 36 36 36 0 
-53.3547 -70.2816 496.564 39 39 39 0 
-53.1877 -70.3342 496.94 48 48 48 0 
-53.012 -70.3758 497.238 49 49 49 0 
-52.8448 -70.429 497.618 34 34 34 0 
-52.6796 -70.4852 498.019 32 32 32 0 
-52.5177 -70.5464 498.456 37 37 37 0 
-52.3483 -70.598 498.824 38 38 38 0 
-52.1795 -70.6507 499.201 42 42 42 0 
-52.0103 -70.7034 499.578 42 42 42 0 
-51.8371 -70.751 499.918 44 44 44 0 
-51.6647 -70.8 500.268 40 40 40 0 
-51.4874 -70.8428 500.575 43 43 43 0 
-51.3127 -70.8894 500.908 41 41 41 0 
-51.1338 -70.9307 501.204 41 41 41 0 
-50.9606 -70.9802 501.557 44 44 44 0 
-50.786 -71.0282 501.901 44 44 44 0 
-50.607 -71.0704 502.202 36 36 36 0 
-50.4321 -71.1187 502.548 38 38 38 0 
-50.2553 -71.1648 502.878 46 46 46 0 
-50.0794 -71.2124 503.218 45 45 45 0 
-49.9021 -71.2586 503.548 38 38 38 0 
-49.721 -71.2995 503.842 43 43 43 0 
-49.5406 -71.342 504.146 43 43 43 0 
-49.3583 -71.3819 504.431 48 48 48 0 
-49.1748 -71.4204 504.708 52 52 52 0 
-48.9959 -71.4662 505.035 44 44 44 0 
-48.817 -71.5121 505.363 38 38 38 0 
-48.6349 -71.554 505.663 44 44 44 0 
-48.4492 -71.5907 505.926 46 46 46 0 
-48.2636 -71.6279 506.193 41 41 41 0 
-48.0801 -71.6687 506.485 41 41 41 0 
-47.9002 -71.715 506.816 45 45 45 0 
-47.7195 -71.7607 507.143 50 50 50 0 
-47.5337 -71.799 507.417 49 49 49 0 
-47.342 -71.8288 507.632 52 52 52 0 
-47.1536 -71.8638 507.883 51 51 51 0 
-46.965 -71.8989 508.135 45 45 45 0 
-46.7749 -71.932 508.372 43 43 43 0 
-46.5832 -71.9629 508.594 43 43 43 0 
-46.3878 -71.9883 508.777 52 52 52 0 
-46.1984 -72.0233 509.028 40 40 40 0 
-46.0091 -72.0588 509.283 46 46 46 0 
-45.8172 -72.0905 509.51 49 49 49 0 
-45.6252 -72.1224 509.74 45 45 45 0 
-45.4342 -72.1561 509.982 49 49 49 0 
-45.24 -72.1852 510.191 48 48 48 0 
-45.0449 -72.2129 510.39 49 49 49 0 
-44.8429 -72.2299 510.514 50 50 50 0 
-44.6403 -72.246 510.631 47 47 47 0 
-44.4409 -72.2675 510.787 47 47 47 0 
-44.2436 -72.2928 510.969 45 45 45 0 
-44.0476 -72.3202 511.166 50 50 50 0 
-43.8524 -72.3494 511.376 50 50 50 0 
-43.6507 -72.3679 511.51 53 53 53 0 
-43.4454 -72.3807 511.604 48 48 48 0 
-43.2418 -72.3964 511.719 48 48 48 0 
-43.0418 -72.4185 511.878 51 51 51 0 
-42.8398 -72.4373 512.015 49 49 49 0 
-42.6333 -72.4487 512.098 52 52 52 0 
-42.4253 -72.4576 512.165 53 53 53 0 
-42.215 -72.4626 512.204 49 49 49 0 
-42.0019 -72.4628 512.208 51 51 51 0 
-41.7951 -72.4741 512.292 60 60 60 0 
-41.5875 -72.4841 512.365 64 64 64 0 
-41.3686 -72.4743 512.299 52 52 52 0 
-41.1516 -72.4678 512.257 54 54 54 0 
-40.9397 -72.4702 512.277 56 56 56 0 
-40.7233 -72.4646 512.24 51 51 51 0 
-40.4999 -72.4465 512.116 53 53 53 0 
-40.2768 -72.4288 511.994 55 55 55 0 
-40.0531 -72.4096 511.861 55 55 55 0 
-39.8258 -72.3839 511.683 58 58 58 0 
-39.5999 -72.3603 511.52 54 54 54 0 
-39.3777 -72.3433 511.402 59 59 59 0 
-39.1508 -72.3176 511.224 54 54 54 0 
-38.913 -72.2712 510.899 62 62 62 0 
-38.6811 -72.2352 510.648 61 61 61 0 
-38.4458 -72.1926 510.349 58 58 58 0 
-38.1946 -72.1196 509.836 56 56 56 0 
-37.9482 -72.0548 509.381 58 58 58 0 
-37.7543 -72.0895 509.629 61 61 61 0 
-60.0457 -67.8203 480.411 28 28 28 0 
-59.8965 -67.8781 480.825 33 33 33 0 
-59.7462 -67.935 481.233 45 45 45 0 
-59.6015 -67.9987 481.688 32 32 32 0 
-59.4584 -68.0647 482.16 32 32 32 0 
-59.3083 -68.123 482.578 37 37 37 0 
-59.1581 -68.1817 482.999 34 34 34 0 
-59.0055 -68.2379 483.402 34 34 34 0 
-58.8497 -68.2907 483.78 47 47 47 0 
-58.6952 -68.3456 484.174 41 41 41 0 
-58.5479 -68.4092 484.628 24 24 24 0 
-58.395 -68.4666 485.04 36 36 36 0 
-58.2437 -68.5264 485.468 38 38 38 0 
-58.088 -68.5814 485.862 29 29 29 0 
-57.9314 -68.6357 486.252 38 38 38 0 
-57.7797 -68.6962 486.685 35 35 35 0 
-57.6226 -68.7507 487.075 37 37 37 0 
-57.471 -68.8121 487.515 39 39 39 0 
-57.3169 -68.871 487.936 37 37 37 0 
-57.1671 -68.9355 488.398 44 44 44 0 
-57.0123 -68.9943 488.819 35 35 35 0 
-56.8516 -69.0466 489.194 40 40 40 0 
-56.6882 -69.0958 489.547 36 36 36 0 
-56.5281 -69.1494 489.931 44 44 44 0 
-56.3712 -69.2074 490.346 46 46 46 0 
-56.2161 -69.2679 490.78 38 38 38 0 
-56.0616 -69.3297 491.222 36 36 36 0 
-55.8978 -69.3804 491.585 35 35 35 0 
-55.7309 -69.4276 491.924 38 38 38 0 
-55.5735 -69.4871 492.35 37 37 37 0 
-55.4132 -69.5433 492.752 30 30 30 0 
-55.2529 -69.5999 493.158 40 40 40 0 
-55.09 -69.6537 493.543 40 40 40 0 
-54.9221 -69.7016 493.887 43 43 43 0 
-54.7573 -69.7536 494.26 40 40 40 0 
-54.5928 -69.8066 494.639 38 38 38 0 
-54.4263 -69.8573 495.003 38 38 38 0 
-54.2623 -69.9117 495.392 32 32 32 0 
-54.1007 -69.9696 495.807 33 33 33 0 
-53.9358 -70.0236 496.194 36 36 36 0 
-53.7659 -70.0716 496.538 45 45 45 0 
-53.6014 -70.1269 496.935 34 34 34 0 
-53.4365 -70.1822 497.331 38 38 38 0 
-53.2722 -70.2387 497.735 42 42 42 0 
-53.103 -70.2891 498.097 38 38 38 0 
-52.9336 -70.3398 498.46 34 34 34 0 
-52.7692 -70.3974 498.872 36 36 36 0 
-52.6012 -70.4507 499.254 36 36 36 0 
-52.4318 -70.5026 499.626 35 35 35 0 
-52.2596 -70.551 499.973 41 41 41 0 
-52.0898 -70.6032 500.347 35 35 35 0 
-51.916 -70.6501 500.684 43 43 43 0 
-51.7427 -70.6983 501.029 41 41 41 0 
-51.5697 -70.7473 501.38 41 41 41 0 
-51.3939 -70.7928 501.707 38 38 38 0 
-51.2168 -70.8368 502.023 37 37 37 0 
-51.0428 -70.8855 502.372 43 43 43 0 
-50.8724 -70.9397 502.76 40 40 40 0 
-50.6975 -70.988 503.106 33 33 33 0 
-50.5203 -71.0335 503.433 41 41 41 0 
-50.3452 -71.0823 503.783 44 44 44 0 
-50.1697 -71.131 504.131 40 40 40 0 
-49.9894 -71.1731 504.434 39 39 39 0 
-49.8063 -71.2118 504.712 43 43 43 0 
-49.6244 -71.2524 505.004 46 46 46 0 
-49.4433 -71.2944 505.306 46 46 46 0 
-49.2655 -71.3418 505.645 42 42 42 0 
-49.0872 -71.3887 505.981 42 42 42 0 
-48.9073 -71.4337 506.305 37 37 37 0 
-48.726 -71.477 506.615 43 43 43 0 
-48.5446 -71.5206 506.928 47 47 47 0 
-48.3635 -71.565 507.247 40 40 40 0 
-48.1811 -71.6078 507.554 40 40 40 0 
-47.9948 -71.6453 507.824 43 43 43 0 
-47.8119 -71.6882 508.131 49 49 49 0 
-47.6225 -71.7216 508.372 46 46 46 0 
-47.4358 -71.7593 508.643 51 51 51 0 
-47.2487 -71.7969 508.913 44 44 44 0 
-47.0621 -71.8355 509.19 44 44 44 0 
-46.874 -71.8723 509.455 49 49 49 0 
-46.6821 -71.9034 509.679 40 40 40 0 
-46.4881 -71.9316 509.883 43 43 43 0 
-46.299 -71.9678 510.143 45 45 45 0 
-46.1115 -72.0067 510.422 45 45 45 0 
-45.9208 -72.041 510.669 43 43 43 0 
-45.7312 -72.0772 510.929 43 43 43 0 
-45.5378 -72.1079 511.15 50 50 50 0 
-45.3444 -72.1388 511.373 52 52 52 0 
-45.1501 -72.1687 511.588 44 44 44 0 
-44.9545 -72.1967 511.791 46 46 46 0 
-44.7541 -72.2171 511.939 49 49 49 0 
-44.5588 -72.2462 512.148 45 45 45 0 
-44.3643 -72.2766 512.367 42 42 42 0 
-44.163 -72.2963 512.511 45 45 45 0 
-43.9592 -72.3122 512.627 48 48 48 0 
-43.7603 -72.3362 512.8 48 48 48 0 
-43.5579 -72.3547 512.935 45 45 45 0 
-43.355 -72.3724 513.064 45 45 45 0 
-43.1549 -72.3952 513.229 47 47 47 0 
-42.9546 -72.4177 513.392 54 54 54 0 
-42.7495 -72.4323 513.499 56 56 56 0 
-42.5431 -72.445 513.593 51 51 51 0 
-42.3354 -72.4556 513.671 52 52 52 0 
-42.1232 -72.4583 513.694 49 49 49 0 
-41.9107 -72.4607 513.714 53 53 53 0 
-41.7016 -72.4691 513.777 55 55 55 0 
-41.4897 -72.4725 513.804 51 51 51 0 
-41.2766 -72.474 513.818 55 55 55 0 
-41.0664 -72.4805 513.868 55 55 55 0 
-40.8518 -72.4794 513.863 56 56 56 0 
-40.6363 -72.4766 513.846 59 59 59 0 
-40.4176 -72.4681 513.789 51 51 51 0 
-40.1973 -72.4566 513.711 54 54 54 0 
-39.9772 -72.4452 513.633 53 53 53 0 
-39.7527 -72.4259 513.5 52 52 52 0 
-39.5285 -72.4067 513.367 57 57 57 0 
-39.301 -72.3814 513.191 59 59 59 0 
-39.0699 -72.3491 512.965 58 58 58 0 
-38.8442 -72.3265 512.807 58 58 58 0 
-38.6152 -72.2975 512.605 60 60 60 0 
-38.3759 -72.2487 512.262 59 59 59 0 
-38.1324 -72.1914 511.859 59 59 59 0 
-37.8916 -72.1387 511.488 57 57 57 0 
-37.6928 -72.1658 511.683 61 61 61 0 
-60.4086 -67.5783 480.11 44 44 44 0 
-60.2602 -67.6363 480.526 32 32 32 0 
-60.1148 -67.6981 480.97 29 29 29 0 
-59.9703 -67.7612 481.423 36 36 36 0 
-59.816 -67.8137 481.801 52 52 52 0 
-59.6699 -67.8759 482.247 36 36 36 0 
-59.525 -67.9398 482.706 34 34 34 0 
-59.379 -68.0029 483.159 38 38 38 0 
-59.2283 -68.0611 483.576 33 33 33 0 
-59.073 -68.1143 483.959 33 33 33 0 
-58.9156 -68.1655 484.328 38 38 38 0 
-58.7645 -68.2244 484.751 38 38 38 0 
-58.618 -68.289 485.214 34 34 34 0 
-58.4655 -68.3471 485.631 37 37 37 0 
-58.3113 -68.4036 486.037 40 40 40 0 
-58.1592 -68.4628 486.463 29 29 29 0 
-58.0076 -68.5231 486.896 40 40 40 0 
-57.8528 -68.5801 487.305 33 33 33 0 
-57.6935 -68.6322 487.68 30 30 30 0 
-57.5385 -68.6896 488.092 28 28 28 0 
-57.3883 -68.7533 488.549 32 32 32 0 
-57.2356 -68.8144 488.988 40 40 40 0 
-57.0816 -68.8744 489.419 33 33 33 0 
-56.9244 -68.931 489.825 40 40 40 0 
-56.7599 -68.979 490.171 34 34 34 0 
-56.5968 -69.0292 490.532 43 43 43 0 
-56.4412 -69.0889 490.961 38 38 38 0 
-56.2848 -69.1479 491.385 30 30 30 0 
-56.1312 -69.2109 491.837 34 34 34 0 
-55.9646 -69.2584 492.178 38 38 38 0 
-55.8031 -69.3124 492.567 38 38 38 0 
-55.6416 -69.3668 492.958 39 39 39 0 
-55.4849 -69.4277 493.395 33 33 33 0 
-55.3254 -69.4856 493.811 39 39 39 0 
-55.1591 -69.5352 494.167 36 36 36 0 
-55.0007 -69.5954 494.599 42 42 42 0 
-54.8351 -69.6466 494.967 32 32 32 0 
-54.6752 -69.7056 495.391 39 39 39 0 
-54.5086 -69.7566 495.758 35 35 35 0 
-54.3444 -69.8108 496.147 36 36 36 0 
-54.1805 -69.866 496.544 41 41 41 0 
-54.0141 -69.9184 496.92 37 37 37 0 
-53.8465 -69.9696 497.288 37 37 37 0 
-53.6822 -70.0254 497.689 32 32 32 0 
-53.5186 -70.0826 498.1 39 39 39 0 
-53.3565 -70.1423 498.529 42 42 42 0 
-53.185 -70.19 498.872 38 38 38 0 
-53.0157 -70.241 499.238 44 44 44 0 
-52.8472 -70.2935 499.616 37 37 37 0 
-52.6818 -70.3505 500.025 34 34 34 0 
-52.5122 -70.4023 500.397 42 42 42 0 
-52.3421 -70.4539 500.768 39 39 39 0 
-52.169 -70.5017 501.112 41 41 41 0 
-51.9928 -70.5459 501.43 43 43 43 0 
-51.8206 -70.5958 501.789 40 40 40 0 
-51.6533 -70.6528 502.198 36 36 36 0 
-51.4817 -70.7044 502.569 38 38 38 0 
-51.3062 -70.751 502.905 41 41 41 0 
-51.1307 -70.7981 503.243 41 41 41 0 
-50.9582 -70.8497 503.614 40 40 40 0 
-50.7837 -70.8989 503.968 40 40 40 0 
-50.6054 -70.9431 504.286 43 43 43 0 
-50.4299 -70.9917 504.636 43 43 43 0 
-50.2558 -71.0427 505.002 39 39 39 0 
-50.0777 -71.0885 505.331 43 43 43 0 
-49.8956 -71.1289 505.622 39 39 39 0 
-49.7133 -71.1693 505.913 44 44 44 0 
-49.533 -71.213 506.228 44 44 44 0 
-49.3561 -71.262 506.58 39 39 39 0 
-49.1805 -71.3132 506.948 38 38 38 0 
-49.0014 -71.36 507.285 41 41 41 0 
-48.8192 -71.4024 507.59 45 45 45 0 
-48.6382 -71.4471 507.911 49 49 49 0 
-48.4578 -71.4929 508.241 47 47 47 0 
-48.276 -71.5372 508.559 40 40 40 0 
-48.0902 -71.5759 508.839 41 41 41 0 
-47.9022 -71.6116 509.096 49 49 49 0 
-47.7168 -71.6514 509.383 46 46 46 0 
-47.528 -71.6866 509.637 48 48 48 0 
-47.3412 -71.7251 509.915 53 53 53 0 
-47.1549 -71.7649 510.201 45 45 45 0 
-46.9721 -71.8102 510.527 45 45 45 0 
-46.7879 -71.8537 510.84 41 41 41 0 
-46.5951 -71.8845 511.063 39 39 39 0 
-46.4024 -71.9156 511.287 41 41 41 0 
-46.209 -71.9459 511.507 44 44 44 0 
-46.0201 -71.9837 511.779 44 44 44 0 
-45.8287 -72.0178 512.025 41 41 41 0 
-45.6379 -72.0532 512.28 44 44 44 0 
-45.4442 -72.0843 512.505 52 52 52 0 
-45.2527 -72.1192 512.756 45 45 45 0 
-45.0573 -72.1482 512.966 46 46 46 0 
-44.8612 -72.1763 513.17 45 45 45 0 
-44.6671 -72.2079 513.398 45 45 45 0 
-44.4737 -72.241 513.637 50 50 50 0 
-44.2712 -72.2596 513.773 50 50 50 0 
-44.0694 -72.2795 513.918 51 51 51 0 
-43.8715 -72.306 514.109 46 46 46 0 
-43.6719 -72.3299 514.283 45 45 45 0 
-43.4667 -72.3448 514.392 49 49 49 0 
-43.2625 -72.3614 514.514 46 46 46 0 
-43.0594 -72.3802 514.651 53 53 53 0 
-42.8563 -72.399 514.788 54 54 54 0 
-42.653 -72.4177 514.924 52 52 52 0 
-42.4469 -72.432 515.029 49 49 49 0 
-42.2378 -72.4411 515.097 50 50 50 0 
-42.0272 -72.4477 515.148 45 45 45 0 
-41.8215 -72.4629 515.259 49 49 49 0 
-41.6133 -72.474 515.342 48 48 48 0 
-41.3979 -72.4725 515.334 52 52 52 0 
-41.1858 -72.4769 515.368 48 48 48 0 
-40.9737 -72.4812 515.402 50 50 50 0 
-40.7603 -72.4832 515.42 53 53 53 0 
-40.5463 -72.4843 515.431 57 57 57 0 
-40.3265 -72.4749 515.367 52 52 52 0 
-40.1062 -72.4645 515.297 51 51 51 0 
-39.8853 -72.453 515.218 50 50 50 0 
-39.6639 -72.4403 515.131 56 56 56 0 
-39.4421 -72.4269 515.038 59 59 59 0 
-39.2198 -72.4124 514.938 53 53 53 0 
-38.9913 -72.3862 514.755 54 54 54 0 
-38.7562 -72.3472 514.481 56 56 56 0 
-38.5236 -72.3128 514.239 59 59 59 0 
-38.2931 -72.2816 514.021 59 59 59 0 
-38.0571 -72.2399 513.727 61 61 61 0 
-37.8119 -72.1802 513.306 57 57 57 0 
-37.6119 -72.2065 513.496 60 60 60 0 
-60.9066 -67.2655 479.297 32 32 32 0 
-60.7649 -67.3298 479.76 30 30 30 0 
-60.6223 -67.3935 480.218 36 36 36 0 
-60.4742 -67.4515 480.636 33 33 33 0 
-60.329 -67.5131 481.08 38 38 38 0 
-60.1866 -67.5783 481.549 33 33 33 0 
-60.0348 -67.6333 481.946 39 39 39 0 
-59.886 -67.6921 482.369 39 39 39 0 
-59.7361 -67.7501 482.787 31 31 31 0 
-59.5948 -67.8181 483.277 37 37 37 0 
-59.4442 -67.8761 483.695 41 41 41 0 
-59.2933 -67.9341 484.112 40 40 40 0 
-59.1451 -67.9957 484.556 32 32 32 0 
-58.987 -68.0461 484.92 31 31 31 0 
-58.8381 -68.1077 485.363 34 34 34 0 
-58.6911 -68.1718 485.825 41 41 41 0 
-58.5362 -68.2272 486.224 39 39 39 0 
-58.3846 -68.2868 486.653 36 36 36 0 
-58.2336 -68.3475 487.091 34 34 34 0 
-58.0796 -68.4052 487.506 60 60 60 0 
-57.9236 -68.4609 487.907 38 38 38 0 
-57.7698 -68.5195 488.33 33 33 33 0 
-57.6089 -68.5701 488.695 35 35 35 0 
-57.4567 -68.6315 489.137 33 33 33 0 
-57.3019 -68.6903 489.56 46 46 46 0 
-57.1491 -68.7518 490.003 36 36 36 0 
-56.9883 -68.8041 490.381 36 36 36 0 
-56.829 -68.8586 490.773 32 32 32 0 
-56.6669 -68.9101 491.145 52 52 52 0 
-56.5129 -68.9718 491.589 46 46 46 0 
-56.3591 -69.0343 492.039 32 32 32 0 
-56.2041 -69.0958 492.481 42 42 42 0 
-56.0447 -69.1522 492.888 33 33 33 0 
-55.8765 -69.1982 493.22 41 41 41 0 
-55.7207 -69.2598 493.664 37 37 37 0 
-55.5612 -69.3175 494.079 33 33 33 0 
-55.3983 -69.3712 494.467 42 42 42 0 
-55.239 -69.4299 494.889 38 38 38 0 
-55.0753 -69.4834 495.275 30 30 30 0 
-54.9138 -69.5402 495.684 37 37 37 0 
-54.7504 -69.5949 496.078 43 43 43 0 
-54.5854 -69.648 496.461 33 33 33 0 
-54.4235 -69.7056 496.876 37 37 37 0 
-54.2584 -69.7594 497.263 34 34 34 0 
-54.0941 -69.8147 497.662 38 38 38 0 
-53.9243 -69.8632 498.012 42 42 42 0 
-53.7626 -69.9227 498.44 30 30 30 0 
-53.6008 -69.9825 498.87 33 33 33 0 
-53.4356 -70.0384 499.273 38 38 38 0 
-53.267 -70.0902 499.647 43 43 43 0 
-53.0948 -70.1376 499.989 36 36 36 0 
-52.9253 -70.189 500.359 36 36 36 0 
-52.7613 -70.2481 500.785 35 35 35 0 
-52.5906 -70.2987 501.15 42 42 42 0 
-52.4201 -70.35 501.52 39 39 39 0 
-52.2487 -70.4006 501.884 43 43 43 0 
-52.0747 -70.4479 502.226 40 40 40 0 
-51.9042 -70.5004 502.604 37 37 37 0 
-51.7356 -70.5559 503.004 41 41 41 0 
-51.5631 -70.6067 503.37 34 34 34 0 
-51.3897 -70.6565 503.729 37 37 37 0 
-51.2128 -70.7019 504.057 38 38 38 0 
-51.0378 -70.7503 504.406 47 47 47 0 
-50.8631 -70.7996 504.761 38 38 38 0 
-50.6875 -70.848 505.11 38 38 38 0 
-50.5115 -70.8961 505.457 34 34 34 0 
-50.3363 -70.9458 505.816 41 41 41 0 
-50.1594 -70.9937 506.161 45 45 45 0 
-49.9806 -71.0391 506.489 41 41 41 0 
-49.8026 -71.0861 506.828 36 36 36 0 
-49.6261 -71.1358 507.186 40 40 40 0 
-49.4499 -71.1862 507.549 42 42 42 0 
-49.2707 -71.2327 507.884 43 43 43 0 
-49.0896 -71.2768 508.203 41 41 41 0 
-48.9077 -71.3202 508.516 41 41 41 0 
-48.727 -71.3656 508.844 42 42 42 0 
-48.5463 -71.4115 509.175 41 41 41 0 
-48.3663 -71.4588 509.516 47 47 47 0 
-48.1786 -71.4952 509.779 46 46 46 0 
-47.9937 -71.536 510.074 48 48 48 0 
-47.8097 -71.5786 510.381 40 40 40 0 
-47.6282 -71.6252 510.718 44 44 44 0 
-47.4353 -71.655 510.934 43 43 43 0 
-47.2465 -71.6914 511.197 45 45 45 0 
-47.0607 -71.7326 511.495 50 50 50 0 
-46.877 -71.7775 511.819 45 45 45 0 
-46.6899 -71.8175 512.107 45 45 45 0 
-46.4999 -71.8535 512.368 43 43 43 0 
-46.3088 -71.888 512.618 43 43 43 0 
-46.1169 -71.9217 512.861 48 48 48 0 
-45.9254 -71.9562 513.111 43 43 43 0 
-45.7331 -71.9897 513.354 41 41 41 0 
-45.5423 -72.0261 513.617 50 50 50 0 
-45.348 -72.0572 513.842 48 48 48 0 
-45.1536 -72.0885 514.069 45 45 45 0 
-44.9583 -72.1185 514.286 49 49 49 0 
-44.7644 -72.1511 514.523 48 48 48 0 
-44.5715 -72.1856 514.772 51 51 51 0 
-44.3736 -72.2123 514.966 46 46 46 0 
-44.1735 -72.2358 515.137 53 53 53 0 
-43.9781 -72.2672 515.364 48 48 48 0 
-43.7789 -72.2926 515.549 46 46 46 0 
-43.5799 -72.3186 515.738 44 44 44 0 
-43.377 -72.3383 515.882 47 47 47 0 
-43.1705 -72.3521 515.984 48 48 48 0 
-42.9645 -72.3671 516.094 53 53 53 0 
-42.7622 -72.3884 516.25 49 49 49 0 
-42.5613 -72.4122 516.422 51 51 51 0 
-42.3631 -72.441 516.631 52 52 52 0 
-42.1577 -72.4576 516.753 48 48 48 0 
-41.9475 -72.4662 516.818 48 48 48 0 
-41.7386 -72.4771 516.899 51 51 51 0 
-41.526 -72.4816 516.934 49 49 49 0 
-41.3164 -72.4914 517.008 48 48 48 0 
-41.1066 -72.5011 517.08 52 52 52 0 
-40.8954 -72.5082 517.134 52 52 52 0 
-40.6831 -72.5137 517.176 51 51 51 0 
-40.4677 -72.5134 517.177 51 51 51 0 
-40.2502 -72.5096 517.153 48 48 48 0 
-40.0316 -72.5036 517.114 50 50 50 0 
-39.8099 -72.4919 517.034 52 52 52 0 
-39.5914 -72.4859 516.994 59 59 59 0 
-39.3721 -72.4783 516.943 53 53 53 0 
-39.1483 -72.4625 516.834 54 54 54 0 
-38.9192 -72.4366 516.652 54 54 54 0 
-38.6872 -72.4048 516.428 58 58 58 0 
-38.4533 -72.3692 516.177 63 63 63 0 
-38.2188 -72.3323 515.917 61 61 61 0 
-37.9821 -72.2905 515.622 58 58 58 0 
-37.7465 -72.2503 515.338 57 57 57 0 
-37.5575 -72.2996 515.693 64 64 64 0 
-61.3981 -66.9484 478.449 38 38 38 0 
-61.2568 -67.012 478.908 43 43 43 0 
-61.1205 -67.0814 479.408 25 25 25 0 
-60.9742 -67.1402 479.834 34 34 34 0 
-60.8322 -67.2042 480.296 39 39 39 0 
-60.6869 -67.265 480.735 30 30 30 0 
-60.5441 -67.3289 481.197 38 38 38 0 
-60.3994 -67.3912 481.646 32 32 32 0 
-60.255 -67.4543 482.102 43 43 43 0 
-60.1018 -67.5078 482.489 33 33 33 0 
-59.9518 -67.5653 482.904 40 40 40 0 
-59.8072 -67.6293 483.367 37 37 37 0 
-59.6568 -67.6872 483.785 31 31 31 0 
-59.5097 -67.7492 484.233 43 43 43 0 
-59.3575 -67.8058 484.642 36 36 36 0 
-59.2085 -67.8665 485.08 36 36 36 0 
-59.0571 -67.9247 485.501 33 33 33 0 
-58.9073 -67.9854 485.939 28 28 28 0 
-58.7524 -68.0405 486.338 37 37 37 0 
-58.602 -68.1011 486.776 37 37 37 0 
-58.4487 -68.1589 487.193 37 37 37 0 
-58.2906 -68.2113 487.573 46 46 46 0 
-58.1319 -68.2636 487.951 82 82 82 0 
-57.9795 -68.3234 488.383 40 40 40 0 
-57.8295 -68.3867 488.84 20 20 20 0 
-57.68 -68.451 489.304 26 26 26 0 
-57.5214 -68.5048 489.693 35 35 35 0 
-57.3711 -68.5691 490.157 40 40 40 0 
-57.2179 -68.6302 490.598 34 34 34 0 
-57.0602 -68.6864 491.004 33 33 33 0 
-56.9015 -68.7418 491.405 36 36 36 0 
-56.742 -68.7966 491.801 47 47 47 0 
-56.5869 -68.8572 492.239 39 39 39 0 
-56.4315 -68.9178 492.676 32 32 32 0 
-56.2741 -68.9764 493.1 37 37 37 0 
-56.1135 -69.0315 493.498 35 35 35 0 
-55.9539 -69.0883 493.909 41 41 41 0 
-55.7916 -69.1422 494.298 31 31 31 0 
-55.6354 -69.204 494.744 39 39 39 0 
-55.4751 -69.2612 495.158 35 35 35 0 
-55.3103 -69.3132 495.533 41 41 41 0 
-55.1554 -69.3779 496.001 38 38 38 0 
-54.9889 -69.4286 496.367 33 33 33 0 
-54.8242 -69.4819 496.752 37 37 37 0 
-54.6575 -69.533 497.122 37 37 37 0 
-54.4935 -69.588 497.52 50 50 50 0 
-54.3368 -69.6528 497.987 34 34 34 0 
-54.1721 -69.7078 498.385 31 31 31 0 
-54.0083 -69.7643 498.793 36 36 36 0 
-53.8481 -69.826 499.238 31 31 31 0 
-53.6858 -69.8854 499.667 38 38 38 0 
-53.5187 -69.939 500.055 38 38 38 0 
-53.3506 -69.9917 500.436 38 38 38 0 
-53.1806 -70.0424 500.802 39 39 39 0 
-53.0137 -70.0975 501.2 39 39 39 0 
-52.8409 -70.1451 501.545 37 37 37 0 
-52.6684 -70.1936 501.896 39 39 39 0 
-52.4965 -70.2434 502.256 38 38 38 0 
-52.3289 -70.2993 502.66 38 38 38 0 
-52.1585 -70.3518 503.039 41 41 41 0 
-51.9911 -70.4089 503.452 41 41 41 0 
-51.823 -70.4653 503.859 36 36 36 0 
-51.6475 -70.5123 504.199 41 41 41 0 
-51.4765 -70.5657 504.585 43 43 43 0 
-51.2983 -70.6097 504.904 42 42 42 0 
-51.1226 -70.6574 505.249 45 45 45 0 
-50.9487 -70.7082 505.616 39 39 39 0 
-50.7747 -70.7592 505.984 39 39 39 0 
-50.5998 -70.8093 506.347 36 36 36 0 
-50.4235 -70.8579 506.698 35 35 35 0 
-50.2436 -70.9018 507.016 40 40 40 0 
-50.0668 -70.9504 507.368 42 42 42 0 
-49.8867 -70.9948 507.689 43 43 43 0 
-49.7128 -71.0485 508.077 41 41 41 0 
-49.5337 -71.0951 508.415 40 40 40 0 
-49.3569 -71.1454 508.778 45 45 45 0 
-49.178 -71.1932 509.124 37 37 37 0 
-48.9994 -71.2417 509.475 43 43 43 0 
-48.818 -71.2866 509.8 43 43 43 0 
-48.6345 -71.3289 510.105 44 44 44 0 
-48.454 -71.376 510.446 46 46 46 0 
-48.271 -71.4196 510.762 46 46 46 0 
-48.0844 -71.4584 511.044 42 42 42 0 
-47.9049 -71.5082 511.403 45 45 45 0 
-47.7182 -71.5475 511.688 50 50 50 0 
-47.531 -71.5865 511.971 43 43 43 0 
-47.3405 -71.6208 512.22 40 40 40 0 
-47.158 -71.6676 512.558 47 47 47 0 
-46.9722 -71.7098 512.864 40 40 40 0 
-46.7883 -71.7554 513.193 46 46 46 0 
-46.604 -71.8006 513.52 47 47 47 0 
-46.4147 -71.8385 513.795 45 45 45 0 
-46.2243 -71.8751 514.061 46 46 46 0 
-46.0291 -71.9046 514.275 46 46 46 0 
-45.8311 -71.9299 514.46 47 47 47 0 
-45.6353 -71.9589 514.671 45 45 45 0 
-45.4403 -71.9895 514.894 42 42 42 0 
-45.2476 -72.024 515.144 48 48 48 0 
-45.059 -72.0655 515.444 43 43 43 0 
-44.8668 -72.1014 515.705 46 46 46 0 
-44.672 -72.1337 515.939 49 49 49 0 
-44.4723 -72.1582 516.118 49 49 49 0 
-44.2724 -72.1826 516.296 44 44 44 0 
-44.0786 -72.2173 516.547 46 46 46 0 
-43.8856 -72.2537 516.812 44 44 44 0 
-43.6883 -72.2831 517.026 48 48 48 0 
-43.4885 -72.3089 517.213 46 46 46 0 
-43.2812 -72.3223 517.313 47 47 47 0 
-43.0761 -72.3396 517.44 50 50 50 0 
-42.8757 -72.365 517.625 47 47 47 0 
-42.6722 -72.3854 517.774 45 45 45 0 
-42.4716 -72.4109 517.96 53 53 53 0 
-42.2681 -72.4318 518.113 50 50 50 0 
-42.0633 -72.4506 518.25 46 46 46 0 
-41.8569 -72.4666 518.369 53 53 53 0 
-41.649 -72.4804 518.471 49 49 49 0 
-41.4386 -72.4901 518.543 49 49 49 0 
-41.2281 -72.4994 518.613 54 54 54 0 
-41.0198 -72.513 518.713 52 52 52 0 
-40.8107 -72.5252 518.804 51 51 51 0 
-40.5972 -72.5296 518.839 53 53 53 0 
-40.3819 -72.5308 518.851 51 51 51 0 
-40.168 -72.5347 518.882 53 53 53 0 
-39.95 -72.531 518.859 54 54 54 0 
-39.7232 -72.5113 518.721 54 54 54 0 
-39.495 -72.4887 518.562 55 55 55 0 
-39.2729 -72.4774 518.485 54 54 54 0 
-39.0523 -72.4685 518.424 52 52 52 0 
-38.8311 -72.4585 518.356 57 57 57 0 
-38.6073 -72.4434 518.251 55 55 55 0 
-38.3809 -72.4233 518.11 57 57 57 0 
-38.1525 -72.3992 517.941 56 56 56 0 
-37.9185 -72.3642 517.693 56 56 56 0 
-37.6778 -72.3158 517.35 62 62 62 0 
-37.4861 -72.3614 517.679 58 58 58 0 
-61.7665 -66.7164 478.21 34 34 34 0 
-61.6096 -66.7622 478.543 33 33 33 0 
-61.4636 -66.8203 478.964 38 38 38 0 
-61.3246 -66.8864 479.443 32 32 32 0 
-61.1805 -66.9473 479.884 36 36 36 0 
-61.0426 -67.0154 480.377 39 39 39 0 
-60.8972 -67.0758 480.814 33 33 33 0 
-60.7519 -67.1365 481.255 30 30 30 0 
-60.6074 -67.1987 481.705 33 33 33 0 
-60.4626 -67.2609 482.156 46 46 46 0 
-60.3108 -67.3157 482.553 68 68 68 0 
-60.1616 -67.3738 482.974 30 30 30 0 
-60.011 -67.4307 483.387 43 43 43 0 
-59.8615 -67.4892 483.811 46 46 46 0 
-59.7188 -67.5558 484.293 27 27 27 0 
-59.5694 -67.6153 484.724 31 31 31 0 
-59.4203 -67.6754 485.16 35 35 35 0 
-59.2687 -67.7332 485.579 49 49 49 0 
-59.1199 -67.7945 486.023 30 30 30 0 
-58.9676 -67.8523 486.442 33 33 33 0 
-58.8155 -67.9107 486.865 29 29 29 0 
-58.6669 -67.9735 487.32 30 30 30 0 
-58.5123 -68.0298 487.728 48 48 48 0 
-58.3531 -68.0812 488.101 47 47 47 0 
-58.1944 -68.1334 488.48 32 32 32 0 
-58.0473 -68.1997 488.959 31 31 31 0 
-57.9076 -68.2752 489.506 29 29 29 0 
-57.751 -68.3312 489.911 33 33 33 0 
-57.5992 -68.3932 490.361 37 37 37 0 
-57.4421 -68.4495 490.768 33 33 33 0 
-57.2859 -68.5072 491.187 35 35 35 0 
-57.1295 -68.565 491.606 41 41 41 0 
-56.9729 -68.6232 492.027 43 43 43 0 
-56.8152 -68.6802 492.441 37 37 37 0 
-56.6609 -68.742 492.888 26 26 26 0 
-56.5015 -68.7979 493.293 36 36 36 0 
-56.3425 -68.8547 493.705 40 40 40 0 
-56.1836 -68.9121 494.121 38 38 38 0 
-56.0216 -68.966 494.512 35 35 35 0 
-55.8688 -69.0317 494.987 31 31 31 0 
-55.7096 -69.09 495.41 31 31 31 0 
-55.5458 -69.143 495.794 30 30 30 0 
-55.3869 -69.2024 496.225 41 41 41 0 
-55.225 -69.2586 496.632 40 40 40 0 
-55.0625 -69.3145 497.037 33 33 33 0 
-54.898 -69.3682 497.426 34 34 34 0 
-54.7339 -69.4229 497.823 37 37 37 0 
-54.5733 -69.4824 498.254 40 40 40 0 
-54.4128 -69.5426 498.69 34 34 34 0 
-54.2543 -69.6057 499.146 37 37 37 0 
-54.0902 -69.6621 499.555 35 35 35 0 
-53.9311 -69.7254 500.013 32 32 32 0 
-53.7656 -69.7809 500.415 33 33 33 0 
-53.5935 -69.8283 500.759 42 42 42 0 
-53.4243 -69.8797 501.132 37 37 37 0 
-53.2592 -69.937 501.548 36 36 36 0 
-53.088 -69.9868 501.909 41 41 41 0 
-52.9187 -70.0393 502.29 40 40 40 0 
-52.7463 -70.0882 502.644 33 33 33 0 
-52.578 -70.143 503.042 35 35 35 0 
-52.41 -70.1986 503.444 40 40 40 0 
-52.2399 -70.2518 503.83 43 43 43 0 
-52.0704 -70.3063 504.225 39 39 39 0 
-51.8987 -70.3581 504.601 44 44 44 0 
-51.7246 -70.4073 504.957 39 39 39 0 
-51.5508 -70.4572 505.319 39 39 39 0 
-51.375 -70.5047 505.664 45 45 45 0 
-51.201 -70.5551 506.03 44 44 44 0 
-51.0324 -70.6135 506.452 36 36 36 0 
-50.8623 -70.6702 506.863 36 36 36 0 
-50.6898 -70.724 507.253 35 35 35 0 
-50.5133 -70.7727 507.606 36 36 36 0 
-50.3342 -70.8182 507.936 37 37 37 0 
-50.1542 -70.8627 508.26 43 43 43 0 
-49.9758 -70.9098 508.602 42 42 42 0 
-49.7994 -70.9604 508.968 36 36 36 0 
-49.6204 -71.0074 509.31 41 41 41 0 
-49.4422 -71.0562 509.663 40 40 40 0 
-49.2671 -71.1098 510.052 38 38 38 0 
-49.0878 -71.1578 510.4 42 42 42 0 
-48.9046 -71.2006 510.71 42 42 42 0 
-48.7227 -71.2455 511.036 40 40 40 0 
-48.5405 -71.2905 511.363 38 38 38 0 
-48.3575 -71.3346 511.683 40 40 40 0 
-48.1744 -71.379 512.006 43 43 43 0 
-47.9889 -71.4203 512.306 42 42 42 0 
-47.8094 -71.4709 512.672 47 47 47 0 
-47.6213 -71.5089 512.949 47 47 47 0 
-47.4356 -71.5511 513.255 38 38 38 0 
-47.2498 -71.5933 513.562 42 42 42 0 
-47.0639 -71.6359 513.871 40 40 40 0 
-46.8762 -71.6761 514.163 44 44 44 0 
-46.6905 -71.7196 514.479 44 44 44 0 
-46.5011 -71.758 514.758 48 48 48 0 
-46.3114 -71.7961 515.035 49 49 49 0 
-46.1193 -71.831 515.289 48 48 48 0 
-45.9292 -71.8693 515.567 41 41 41 0 
-45.7387 -71.9072 515.843 45 45 45 0 
-45.5411 -71.9343 516.041 39 39 39 0 
-45.3434 -71.9617 516.241 43 43 43 0 
-45.1529 -72.0006 516.523 45 45 45 0 
-44.9631 -72.041 516.817 44 44 44 0 
-44.7695 -72.0758 517.07 50 50 50 0 
-44.5725 -72.1055 517.287 55 55 55 0 
-44.3764 -72.1368 517.515 45 45 45 0 
-44.1834 -72.1735 517.782 43 43 43 0 
-43.9904 -72.2105 518.051 45 45 45 0 
-43.7945 -72.2431 518.288 47 47 47 0 
-43.6016 -72.2812 518.565 55 55 55 0 
-43.4052 -72.3136 518.801 53 53 53 0 
-43.2004 -72.3323 518.938 45 45 45 0 
-42.9947 -72.3498 519.067 48 48 48 0 
-42.7884 -72.3664 519.19 51 51 51 0 
-42.5839 -72.3862 519.335 53 53 53 0 
-42.3824 -72.4114 519.519 47 47 47 0 
-42.1803 -72.4357 519.697 50 50 50 0 
-41.9745 -72.454 519.832 54 54 54 0 
-41.772 -72.4781 520.008 59 59 59 0 
-41.5647 -72.4941 520.126 51 51 51 0 
-41.3501 -72.4976 520.154 55 55 55 0 
-41.1362 -72.5022 520.191 55 55 55 0 
-40.9242 -72.5104 520.253 54 54 54 0 
-40.7104 -72.5152 520.291 53 53 53 0 
-40.4936 -72.515 520.292 56 56 56 0 
-40.2806 -72.5213 520.341 52 52 52 0 
-40.0664 -72.5258 520.377 57 57 57 0 
-39.8489 -72.5242 520.368 60 60 60 0 
-39.6292 -72.5186 520.331 53 53 53 0 
-39.4101 -72.514 520.301 57 57 57 0 
-39.1917 -72.5107 520.281 56 56 56 0 
-38.9735 -72.5078 520.263 56 56 56 0 
-38.751 -72.4965 520.185 56 56 56 0 
-38.5249 -72.4786 520.06 62 62 62 0 
-38.2998 -72.4623 519.946 61 61 61 0 
-38.0704 -72.4376 519.772 62 62 62 0 
-37.8372 -72.4056 519.545 59 59 59 0 
-37.6012 -72.3675 519.275 57 57 57 0 
-37.4076 -72.4112 519.591 64 64 64 0 
-61.9697 -66.5213 478.241 35 35 35 0 
-61.8207 -66.5755 478.635 30 30 30 0 
-61.6802 -66.6392 479.097 32 32 32 0 
-61.5281 -66.6906 479.472 33 33 33 0 
-61.3858 -66.7532 479.927 30 30 30 0 
-61.2444 -66.8171 480.39 39 39 39 0 
-61.105 -66.8836 480.873 30 30 30 0 
-60.9642 -66.949 481.348 24 24 24 0 
-60.8163 -67.007 481.77 37 37 37 0 
-60.6719 -67.0694 482.223 32 32 32 0 
-60.5157 -67.1189 482.584 41 41 41 0 
-60.3723 -67.1831 483.05 61 61 61 0 
-60.226 -67.2445 483.496 28 28 28 0 
-60.0806 -67.3073 483.953 38 38 38 0 
-59.9309 -67.3657 484.377 32 32 32 0 
-59.78 -67.423 484.794 34 34 34 0 
-59.6314 -67.4834 485.233 32 32 32 0 
-59.4811 -67.5423 485.661 37 37 37 0 
-59.3329 -67.6041 486.11 32 32 32 0 
-59.1828 -67.6641 486.546 32 32 32 0 
-59.0375 -67.7299 487.024 36 36 36 0 
-58.8867 -67.7898 487.459 28 28 28 0 
-58.7386 -67.8534 487.921 30 30 30 0 
-58.5863 -67.9125 488.351 37 37 37 0 
-58.4314 -67.9689 488.761 33 33 33 0 
-58.2832 -68.0337 489.231 30 30 30 0 
-58.131 -68.0941 489.67 40 40 40 0 
-57.9757 -68.1514 490.087 35 35 35 0 
-57.824 -68.2132 490.536 33 33 33 0 
-57.6654 -68.2674 490.93 32 32 32 0 
-57.5082 -68.3236 491.338 40 40 40 0 
-57.3511 -68.3803 491.751 28 28 28 0 
-57.1949 -68.4386 492.174 38 38 38 0 
-57.0425 -68.5018 492.633 40 40 40 0 
-56.8887 -68.5638 493.084 36 36 36 0 
-56.7358 -68.6273 493.545 34 34 34 0 
-56.5752 -68.6819 493.942 34 34 34 0 
-56.4109 -68.7324 494.31 38 38 38 0 
-56.2535 -68.7917 494.74 40 40 40 0 
-56.0915 -68.8459 495.134 30 30 30 0 
-55.9374 -68.9101 495.6 38 38 38 0 
-55.7846 -68.9764 496.082 29 29 29 0 
-55.6241 -69.0336 496.498 33 33 33 0 
-55.4606 -69.0876 496.891 35 35 35 0 
-55.2979 -69.1429 497.293 39 39 39 0 
-55.1365 -69.2004 497.71 32 32 32 0 
-54.9753 -69.2585 498.132 36 36 36 0 
-54.8179 -69.3219 498.593 36 36 36 0 
-54.6549 -69.3785 499.004 34 34 34 0 
-54.494 -69.4384 499.439 34 34 34 0 
-54.3262 -69.4898 499.813 37 37 37 0 
-54.164 -69.5488 500.242 41 41 41 0 
-54.0011 -69.6074 500.667 31 31 31 0 
-53.8356 -69.6631 501.073 38 38 38 0 
-53.6665 -69.7146 501.447 43 43 43 0 
-53.5009 -69.771 501.857 40 40 40 0 
-53.33 -69.8209 502.22 42 42 42 0 
-53.1626 -69.8757 502.619 41 41 41 0 
-52.9925 -69.9276 502.996 32 32 32 0 
-52.8243 -69.9823 503.393 33 33 33 0 
-52.658 -70.04 503.812 32 32 32 0 
-52.4897 -70.0954 504.215 37 37 37 0 
-52.3175 -70.146 504.584 44 44 44 0 
-52.1457 -70.1977 504.96 38 38 38 0 
-51.9769 -70.2538 505.367 42 42 42 0 
-51.8064 -70.308 505.761 36 36 36 0 
-51.6324 -70.3579 506.124 38 38 38 0 
-51.4542 -70.4026 506.45 40 40 40 0 
-51.2853 -70.4603 506.869 37 37 37 0 
-51.1178 -70.5204 507.305 40 40 40 0 
-50.9508 -70.5818 507.751 42 42 42 0 
-50.7758 -70.6324 508.119 40 40 40 0 
-50.5971 -70.6784 508.453 40 40 40 0 
-50.4202 -70.7273 508.809 43 43 43 0 
-50.2419 -70.7746 509.154 41 41 41 0 
-50.0632 -70.8217 509.497 42 42 42 0 
-49.8859 -70.8713 509.857 38 38 38 0 
-49.7031 -70.9135 510.165 36 36 36 0 
-49.5248 -70.9623 510.52 34 34 34 0 
-49.3509 -71.018 510.924 39 39 39 0 
-49.1724 -71.0675 511.284 41 41 41 0 
-48.992 -71.1148 511.629 44 44 44 0 
-48.8119 -71.1627 511.977 41 41 41 0 
-48.6317 -71.2112 512.33 44 44 44 0 
-48.4476 -71.2541 512.642 37 37 37 0 
-48.2608 -71.2935 512.93 41 41 41 0 
-48.0764 -71.3369 513.246 39 39 39 0 
-47.891 -71.379 513.552 44 44 44 0 
-47.7133 -71.4332 513.946 43 43 43 0 
-47.5278 -71.476 514.258 43 43 43 0 
-47.3441 -71.522 514.593 44 44 44 0 
